# 3D point list with one line of data per point:
#   POINT3D_ID, X, Y, Z, R, G, B, ERROR, TRACK[] as (IMAGE_ID, POINT2D_IDX)
# Number of points: 338, mean track length: 6.3305857874519846
4783 3.7421324378478578 -2.1118139099710009 3.2885630265816501 94 77 54 1.102740783515358 15 172 20 227 22 241 14 137 18 240 44 2196 40 1758 38 306 37 1157 34 1037 33 1181
4782 0.92772730221738486 -3.7552384766239744 5.6591254390051731 34 25 8 0.99300197531815793 15 4546 14 3963 16 4190
4781 1.2114298305702349 -0.57092763488250586 2.2388210531122041 86 52 14 1.9202061475421359 15 4513 14 3909 13 3694 11 4228 12 4156
4780 3.7357475105601115 4.2008580057124583 2.6374180941958403 146 86 60 0.86602856923989691 14 3873 13 3636 11 4164 12 4098 10 3944 9 3234 8 3697 16 4186 7 3377 6 3447 5 3729 3 3781 4 3683 1 3752 2 3841 30 3037
4779 3.6833082713982281 -3.2722978332551724 3.4658970882736875 102 71 50 1.5547836813893259 21 4749 14 3815 11 4109
4777 1.7756453605556473 4.1424642205565512 4.5252358689899745 207 221 222 1.9543740175730526 16 4058 17 4206 14 3797 50 6989 23 3905
4776 1.8760471163274655 3.188202130795263 4.4947932522285976 0 0 0 0.30394675645336089 22 4012 23 3973
4775 0.19699226395468131 2.6195023488278779 6.0359604620611291 117 92 28 1.1856631526029948 16 3929 17 4074 14 3774
4774 3.5858074186432618 0.068436126889986765 3.1028123020787217 216 207 198 0.2700703847965954 14 3751 13 3526
4773 1.3777049166772726 -0.44551113054734526 2.003194739920465 161 120 68 1.8071247963203569 15 4375 14 3742 13 3510 11 4035 12 3983 10 3823
4771 3.923864488618269 3.9273112049515193 2.5157195748226919 211 193 189 1.2419382673860246 15 4332 14 3684 13 3449 11 3814 12 3763 10 3620 24 5400 9 2913 8 3433 7 3109 6 3186 5 3465 3 3613 4 3189 1 3491 2 3580 25 5536 26 4310 27 4734 28 3686 29 4437 30 2922
4770 4.0070351638960169 3.8771766160604666 2.4331166868709144 134 66 53 1.1437164204519703 15 4331 14 3683 13 3289 11 3811 12 3762 10 3380 24 5399 9 2664 8 3220 7 2883 6 2962 5 2882 3 3038 4 2856 1 2933 2 3033 25 5537 26 4311 27 4735 28 3687 29 4384 30 2851 31 3205 41 3096
4768 0.62245801305541226 -2.7395537183469645 6.1466430065532114 60 57 6 1.227028834964613 20 4153 14 3558 19 4172
4765 4.0945093557401497 3.4650100645708708 2.410922088011302 215 201 190 0.77036801338903149 19 4466 14 3488 13 3271 11 3793 12 3745 10 3597 24 5395 9 2643 8 3190 7 2854 6 2932 5 2850 3 3349 4 3170 1 3240 2 3339 25 5472 26 4257 27 4679 28 3614 29 4375 30 2846 31 3310
4764 1.5882256171913796 3.8051761145028768 4.7055399089475305 196 183 172 0.89618005067434547 15 4179 14 3477 13 3263 11 3799 9 3064 11 3972
4763 2.0939449804222354 3.5986556025351142 4.2411231016610316 189 179 167 1.3099574812546559 13 3260 12 3741 10 3610 9 2905 8 3430 7 3112 6 3190 5 3470 3 3617 4 3418 1 3495 2 3581 26 4240 27 4659 30 2972 31 3448
4762 0.3121686665702324 3.3699721453161247 5.9667819036943746 160 154 130 0.3780035141651602 16 3528 14 3451
4761 2.0133589951157225 1.8825333256991996 2.9545574808617805 165 159 127 1.4477634664763432 15 3902 14 3440 13 3228 11 3759 12 3492
4760 2.3744512999082739 1.6332761242095326 2.6333417841924884 195 195 167 0.77137268608117882 15 4135 14 3432 13 3218 11 3521 25 5440
4759 0.37775615350817665 1.2667898737828243 6.1531884220489257 137 118 75 1.8869114611490851 17 3640 14 3410
4758 4.1264874116285437 -2.0937922961644562 2.9299052733802755 110 80 45 2.1666042796647971 15 4024 14 3328 24 4602
4757 0.4596324797664133 -3.3196393600425931 6.1742460831930135 33 27 1 0.57196000208883102 15 3331 14 3311 16 3358
4756 4.0971996243207887 -2.6743874296537236 3.0048919035898454 91 58 33 1.8742161282329011 20 4112 14 3309 11 3661 36 2890
4755 4.174653799249425 -2.6941771534131078 2.9154204816437188 83 51 26 0.47576082441612322 16 3335 14 3306
4754 3.4111028313172356 4.1587285682385753 2.9559688071739219 221 221 222 1.2575518063642923 17 3974 14 3259 13 3028 10 3042 9 2333 8 2893 7 2119 5 2469 4 2427 26 4153 29 4300 31 3220 37 2098
4753 3.1764548032344582 4.2365125792312472 3.1916559370977415 181 152 142 1.2154959942283052 15 3976 14 3258 11 3597 24 5286 8 3235 6 2623 5 2909 26 4260 28 3619 29 4383
4752 1.9638635610137125 1.9255296565555422 2.9719091553385946 139 132 103 1.7307246671609946 15 3907 14 3195 13 2951 11 3175 12 3145 10 2920 9 1761
4751 1.3696914345736155 2.2176633586982004 5.0743846887081503 131 88 71 1.7918718893558385 15 3545 14 3183 1 3631 3 3756 2 3718
4750 4.1658105444236888 1.5966343391130002 2.5290029673001997 219 205 176 0.75926080471811641 15 3885 14 3174 12 3478 8 2214 5 2286 3 2410 2 2416 30 2448 31 2736
4749 1.2293947059161392 1.7528826095036971 5.2305454336987092 93 67 40 1.9530025685273384 17 3268 14 3166 13 2927 11 3511 15 2933 12 2569 26 3898
4747 3.0228951910186996 -2.5684751189664263 3.9991170642809766 127 59 51 1.7201303991211361 19 3429 14 3044 44 2711 12 2958 43 3362 41 2989 40 2762 39 2793 37 2787
4746 3.3480166262990672 -2.7303707208047578 3.7234681523371944 122 48 45 1.7408772979976121 21 3591 22 2798 14 3032 11 2964 13 2296 10 3167 45 5053 3 2800 4 2620 43 3611 41 3217 38 3461 37 2782 39 2947 36 2790 35 2665 33 2631
4745 1.3738109068075932 -3.5593082033730825 5.3797313570739389 89 83 49 1.1573934825415007 19 2669 20 3386 14 3016
4744 3.7969546883863763 -3.2625203152536058 3.4053883459762546 79 41 18 0.086381008772275975 17 3766 14 3007
4743 1.4525855990607648 5.5162625912864547 4.6048095017641355 139 107 83 0.86910009228492136 15 3689 14 2968 13 2725 11 3347 12 3311 10 3125 9 2739
4742 3.156474709971433 4.7817849929979994 3.1505508867315313 217 218 220 0.94202562850047167 15 3993 14 2956 13 2688 11 3309 12 3280 10 3063 8 2920 7 2596 9 2697 6 2213 5 2505 3 2654 4 2474 1 2569 1 2983 2 2655 26 4160
4740 3.8774727642720683 4.3863146327525282 2.4808407252891431 227 219 210 0.77937297076627399 15 3682 14 2947 13 2675 11 2804 12 2791 10 2547 7 2131 6 741 4 890
4739 3.9556394220308291 4.1419098916504113 2.4536859233213844 202 169 159 1.0063965869258371 15 3983 14 2940 12 3267 9 2331 8 2887 7 2566 6 2607 5 1822 3 2605 4 2418 1 1898 2 2600 30 2561 31 3214
4738 3.8290696291581865 4.1939286363031316 2.5854112619098228 212 204 204 1.2675163782505512 14 2939 13 2668 12 3268 10 2531 11 2059 24 5137 25 5051
4737 3.6872232075873637 3.6648270133205791 2.7595132794999713 220 208 210 1.1155158467461044 16 3255 14 2917 12 3243 24 4872 25 5225 26 3996 27 4592 30 2531
4736 2.1056545129567512 3.6226691362152654 4.233654576310947 184 178 166 0.98368973266462167 15 3618 14 2896 11 3249 9 2300 30 2839
4735 2.0457794671311658 2.9958891925424624 4.3538310005968448 163 112 109 0.8302139991987243 15 3048 14 2854 11 1881 12 3184 10 3340 9 2630 8 3184 7 2841 25 5180 26 3328 26 3939 27 3786 27 4396 31 3163
4734 1.0042732397491325 2.0126165371035754 5.4263565390329953 126 102 66 0.85878196601023582 15 2949 14 2816 12 3482
4733 0.19422285663935959 0.9069144418389754 6.3349062180118789 92 66 29 0.74836831062694209 16 1628 17 2670 14 2783
4732 2.2202087881835419 -0.099753182112625627 1.938188729199851 205 176 117 1.2109494159647838 15 3428 17 3178 14 2726 13 2424 11 2436
4731 4.0705172478309466 -0.42103673748244957 2.8127031864708765 214 207 167 1.2128247451630279 23 3301 14 2707 24 4665 25 4362 38 2801 39 2626 40 2331
4730 2.1691451468368101 -1.3166248931505207 1.7720625385068958 192 162 102 0.47776839046910302 16 3369 14 2646 13 2805
4728 1.3157715134541972 5.652472473449925 4.8075639978764793 115 81 56 0.11395898023556858 15 2510 14 2545
4727 2.9825360029060315 4.9061637554031572 3.2780872481272483 151 61 89 1.1728968624421399 15 2507 14 2533 13 2198 11 2826 12 2819 10 2583 26 3815
4725 3.6703115699466631 4.3799442149036478 2.6999798692129375 178 159 122 0.4859351494414032 16 2852 14 2505
4722 3.8154029514865577 4.2401394621764199 2.5717437352958665 145 92 80 1.2129033305919183 15 3204 14 2495 12 2129 10 2536 24 5139 8 916 25 5055 27 4276 28 3420
4720 4.0094059468592418 4.0523829501213671 2.4196184789693969 186 135 118 1.2876702660150976 15 3669 14 2481 13 2161 11 2779 12 2778 10 933 24 4915 8 889 7 626 6 1539 5 2448 3 930 4 834 2 969 25 5048 26 3809 27 4274 28 3221 29 4033 30 2324 31 2898 41 2416
4719 3.8551937378062142 4.0739152316013074 2.5465214646676926 212 205 199 1.0313876799955395 16 2827 14 2479
4718 1.6467687315475594 3.8869162862278914 4.6344388026665762 96 49 40 1.1026241922213111 16 2731 18 2344 14 2420 9 2324 3 3061 5 2911 4 2891 40 2449
4717 0.14911001500283239 3.9354796094721514 5.8411546271043537 154 134 63 0.69223984024094098 15 2318 19 3752 14 2406 20 3727
4716 3.8147090609892067 2.9135723377840259 2.7227974275341369 192 173 167 1.2411062016985368 22 3493 14 2374 10 1704 23 2623 8 1604 7 451 5 643 4 629 1 697 2 768 50 6448 19 2447 25 4032 26 3411 27 3869 28 2859 29 2575 31 1853
4715 1.5136948515397031 3.3669681674082166 4.8060900992710502 202 157 152 0.6792032058673183 20 3202 14 2369 13 2054 11 2694 12 2693 10 2992 9 2288 8 2850 7 2543 6 2586 5 2887 3 3040 4 2858 1 2934 2 3034 50 6456
4714 0.27416024320854093 3.481396939407698 5.9168908791693697 167 162 136 2.3192664274389849 15 2246 14 2358
4713 2.6543789470936732 2.681683336750095 3.3845556001237447 43 29 2 1.7950725438401431 16 1899 20 2418 14 2337 11 2654 13 1405 9 1801 8 2297 7 1317 1 1745 50 6025 27 4169 15 2230 29 3949
4712 4.1487877749149815 2.3786376485987453 2.4536887910869907 188 141 115 1.6821388108902837 22 2663 14 2319 13 633 11 772 31 713 44 2130 41 1795
4711 0.32957948267912518 2.3617287764324901 6.124135815657394 149 136 104 1.4811742731704447 15 2120 16 2556 14 2265
4710 1.9532862538450764 1.3376143245989858 2.6376174229336926 145 145 118 0.41525226188088232 15 2934 14 2246 13 1299
4709 1.7732275145566827 0.8406420061300538 2.440312829046134 193 192 172 1.8462724897489213 16 1652 14 2221 13 1252
4708 2.1346279551798295 0.61840992547038676 2.2515156735612702 130 124 98 1.1231366658277391 19 2956 14 2207 13 1895
4707 3.8423416533232739 0.012096728123710628 2.9810074994467017 162 129 110 1.2695116802648183 18 2790 14 2168 13 1862 11 2454 12 1636 45 5498 46 4555 47 3326 48 3915 44 2788 43 3427
4706 1.5748652414530111 -0.22441964532581438 1.8180828214942166 208 148 86 0.59949632225974636 17 2560 14 2137 12 1588
4705 0.9902887967487487 -1.0684316001882288 2.5236100927611513 108 89 33 1.2009295229601977 22 1458 14 2078 13 1746 11 2359
4704 2.5775024234610595 -2.0048926150506663 4.3583045159065854 98 38 28 1.6598355326591125 22 1441 14 2050 13 1723 11 2329 12 2390 45 4663 44 2737 43 3385 42 2252 46 3962 41 3009 40 2566
4702 2.7398976824080403 -2.4533306798110344 4.2664822106214713 105 43 32 1.1720041704626221 22 2186 14 2002 12 2363
4701 1.0527604730720745 -2.7956020853653483 5.6530337499434244 82 81 26 1.46110920223954 17 1419 14 1995 12 2929
4700 3.7542863758233573 -2.4669468821892573 3.3200376042005821 111 82 48 1.4691295699024438 15 2609 18 2599 14 1977 9 1489 43 3360 32 1623
4699 2.9868182397916945 -2.6429533666475389 4.0641316247035419 127 56 50 0.46351572787074391 21 2882 14 1976
4697 4.0554074114630803 -2.6685392107861605 3.0912452488797775 94 64 37 1.6262527798736897 20 1625 14 1959 12 2338 8 1206
4696 0.54728922063193797 -3.5218506990525067 6.101917907028052 71 71 47 0.89055558526398892 16 1274 17 1368 18 201 14 1956
4695 1.4374248826067859 5.4921987782108186 4.6541432861147216 175 129 106 0.59150313111902508 16 1159 14 1866 13 1604 11 1214
4694 1.4552624259166234 5.4640423782903449 4.6638045339938659 127 79 56 1.1387540737843946 16 1157 17 1238 14 1863 13 1597 15 2496 11 2871 12 2857 10 2646 9 2012
4692 1.6324826465765436 4.8622564434666566 4.5208581210528465 208 201 182 1.241516194612571 15 1354 16 2077 18 1410 14 1831
4691 3.749907811291926 4.0451552071064087 2.6602672738005189 210 194 182 1.1079884612684632 17 2969 14 1819 10 1838 6 691 3 939 26 3490 25 4177 27 3950 29 2783 30 2320 31 2117
4690 3.4542160752588269 4.1119557293188951 2.9391424650920395 208 181 172 1.1091145580510995 16 2073 14 1812 13 781 10 947 26 3479 27 3936
4689 3.7382080006179037 3.9994498975061323 2.6793111510758574 208 194 191 1.8150999758998561 17 2966 14 1811 13 2148 11 1089 10 1835 24 3936 6 1538 1 907 25 5033 26 3800 27 4263 28 3212
4688 3.6680670986864534 3.922246638757386 2.7957902858728869 210 194 188 1.122244723375327 18 3720 14 1795 24 4533 16 2784 42 1296
4686 1.2832372029997237 4.0747415030711984 4.9476718242260134 208 186 181 1.3829167525563679 17 2163 14 1765 10 1859 8 2453 3 3078 1 2556
4685 1.4721999819183083 4.0173556884041881 4.7577139951601453 136 108 90 1.0331714431492469 19 1298 20 1393 14 1764 13 1505 11 2017 10 1852 9 1895 8 2443 7 1516 6 2192 3 2636 4 1874 1 2547 2 2634 50 5496
4684 1.0993667120933102 3.8858447344995284 5.1083988061791494 142 109 96 0.33445248724294657 15 1219 14 1739 11 1994
4683 3.6116162783442918 3.2248943965675512 2.8900069464890445 186 164 153 1.1952033647613123 15 3115 14 1726 13 1475 11 1932 4 1690 26 3759 27 4216 28 3167
4682 3.4315630919803484 3.2657627758923442 3.051307475500145 204 205 197 0.53017951950456621 17 2161 14 1724 50 6106
4681 -0.11201855187989861 3.6987683415909265 5.5911254529603518 139 118 65 0.54021309733172551 16 979 14 1718 17 980
4679 2.3557059227959507 3.3646982524779405 4.0259094650845118 175 145 123 0.79651829336736457 22 2033 14 1703 24 2787
4678 0.45969104959888246 3.4668051013553467 5.7505664597616803 190 183 154 1.6657661216874542 15 1105 17 2069 14 1661
4677 1.5763809008270455 3.2633563706271094 4.8195187624896469 127 43 56 0.59266922159487534 15 2249 14 1660 13 686
4676 4.1820046626290681 2.6651617054294725 2.41785156038963 171 144 121 0.80943170950441623 18 2321 14 1656 13 1412 12 1928
4675 1.9200807921762078 2.8648964551972478 4.4671316469385811 107 75 66 2.5027604925591658 17 2059 14 1632 16 1885
4674 3.5995007951149027 2.5248958933637438 2.9684142258618182 227 229 217 1.6207295883097601 16 887 23 2561 14 1626 24 1243 50 5294 26 3371 27 2472 28 2353 26 2825 29 1109
4673 4.2202869160448762 2.3793780996744331 2.3629094693439856 152 110 90 1.9667202557315382 22 2668 11 1819 10 1660 41 1807
4671 4.143333731688509 2.2634928655022288 2.4788427306933007 174 145 141 1.3267910794334801 19 1121 14 1597 24 2660 49 4128 50 5983 25 2913 26 2834 27 2504 28 2359 29 2480 30 1188 31 1703 44 2124
4670 4.0497248385997473 2.2180787758041469 2.5715645727803644 228 225 220 1.7226251280435874 22 3131 14 1591 12 687 9 542 48 4654 49 4513 27 3320 28 2820 31 654 44 2120 42 531
4669 2.0740224660290094 1.6657322291016821 2.7753232982289329 129 128 100 1.6152846195171537 16 1782 14 1542 13 1335
4668 0.27990982522586622 1.8292410568945672 6.1325383856413218 140 116 79 1.0506454204770586 15 2057 18 842 14 1496
4667 3.258029781391131 1.4254482998168472 2.9042755145848287 118 94 56 0.85218015454348162 16 1722 14 1492 13 1291
4666 1.724793683550065 0.92616027713995641 2.4982163801011024 189 188 167 0.73862515662829364 15 2003 14 1459 13 1259
4664 3.2755957324092164 0.85656835260331776 2.8981343088589449 106 77 37 0.94275177887181938 16 1633 14 1439 17 1785 13 1245
4663 1.9909756798283709 0.6938382637885625 2.294887827284446 165 168 139 0.39780354967678672 16 1630 14 1438 13 1900
4661 3.7760715114622179 -0.42885343286324717 3.0949372685347676 222 212 200 1.2035235710156331 20 492 14 1319 11 1556 45 4752 46 4044 47 3264 49 2655 25 3603 44 2305 12 324 42 1479 40 1854 38 1578 37 530 36 1222 35 1174 34 1179 33 490
4660 1.4221193165102066 -0.36459870337360617 1.924204135545373 137 93 40 0.96138516904099536 16 330 14 1312 13 1120
4659 1.2190696611554102 -0.4365494531587904 2.1328336135768953 107 74 33 1.1254113695108448 15 1782 17 1558 14 1300
4658 3.504841289825273 -0.81217290885359206 3.384560743761607 145 90 59 1.0297549434919919 22 411 14 1286 46 3268 47 3223 49 1618 50 2956 34 1159
4657 1.6161566946000299 -0.61686239352966987 1.9877690593568205 184 135 79 0.33551288411545865 15 347 14 1276 13 1783
4655 3.7968425030707884 -1.4991409047806112 3.1746512411119814 165 134 105 1.2358479070647383 16 212 17 2477 18 1726 14 1217 13 1039 47 3160 22 335 43 2856 42 1816 41 2525 40 1814 39 1830 38 2257 36 1160
4654 3.5935685595464881 -1.5939199411595844 3.3755575073230664 84 39 3 0.9854439874642924 15 243 14 1214 46 3217 47 196 48 1914
4653 2.1287354775733869 -1.2741341350670967 1.7474269345401345 166 133 74 0.38149132074912523 16 1341 14 1193 13 986
4652 3.9867243117401707 -1.8575437650186972 3.0293160347953996 103 67 31 1.7360224972115437 17 1418 18 1677 14 1190 11 1432 24 49 21 2914 45 3829 47 1910 44 2539 40 1794 35 1681 36 1118 34 1693 32 1100
4651 2.3877152746037709 -1.398887872274563 1.7969785060221788 134 107 52 0.48593902170708203 17 2435 14 1178 13 977
4650 2.4932187344655237 -2.6059923075499474 4.3974334064817597 17 3 0 1.2986903133077909 15 3336 14 1136 44 2503
4649 2.6185294625494482 -2.7151275527870697 4.3870877409134668 126 105 74 1.2516395562813318 16 2214 14 1128 12 2339 45 4602 41 2747
4648 2.7614466716652899 -2.7392585171966766 4.2715111993785992 85 14 6 1.6713111563958409 15 1582 14 1122 11 1358 45 3767 44 2162 39 2160 36 1639 43 1423
4647 1.1088323851711694 -3.2491397957626154 5.6022433346895655 30 24 0 1.2426086986642335 16 113 18 211 14 1113
4646 1.0347930267848551 -3.7105384026569266 5.6932079899895429 57 46 26 0.71943100969944673 18 172 21 152 14 1092
4645 1.4886360484991141 5.4566222342729427 4.5795197459582582 140 100 75 1.0149008615047415 15 1434 14 1019 13 850 11 1212
4644 0.20922741983634022 5.9057121115450943 5.7925682654530144 187 118 136 0.70842145284393021 15 1413 16 1147 14 1015
4642 1.6270314696954162 5.1247792287912404 4.5022985378429139 167 159 129 0.537403747929452 15 1386 14 983 11 2112 18 1447 10 1964
4641 3.9037991887207677 4.3419688161212591 2.4776877427722077 187 177 168 1.5536799445609784 16 2124 14 977 12 1122 15 1411 24 3117 5 907
4640 3.1567887078355636 3.8679247882268415 3.2356509123221122 183 158 151 1.3330528185448689 15 1282 14 923 27 3444 24 2954 29 2680 28 2888 25 3191 30 1444
4638 3.9826678775688427 3.512147670857702 2.4948953298198027 185 140 120 1.3330623218145696 14 906 13 747 12 984 24 3871 50 6163 26 2963 30 1411
4637 1.6970283283047425 4.0602096278495408 4.5575850542414047 176 160 160 0.92433947043506826 17 1078 14 901 13 758 10 957 8 944 7 1513 6 1598
4636 3.4279855254282241 3.6320572442476413 3.025372358388942 225 220 222 1.2152597397455289 17 1110 14 900
4635 1.7766916318197523 3.9875511534153185 4.451505207313085 173 174 178 0.42817776731318996 16 1027 14 897
4634 2.2404139696913932 3.6037634931322411 4.1011934755182171 212 204 188 1.1101194675803059 19 1281 14 872 27 3337 28 2356
4633 0.71925412648005593 3.9444433332397071 5.4844405509372782 172 174 153 0.39519790221497952 19 1218 14 870 11 1998 13 1496 12 2064
4632 2.1466577161013185 3.5478716964009984 4.2051981817027837 202 193 175 0.96245845053505408 15 1209 14 867 13 1483 11 979 12 946 10 856 9 666 8 852 5 854 26 2065 30 1361 31 2553
4631 1.1514527195084558 3.6450068600590981 5.0873786478120051 185 153 141 0.50586560931093683 15 1180 14 847 11 990 12 948 3 990 4 889
4628 0.5735246116660756 3.5308752608239553 5.6619596143695823 169 155 126 0.79133372543045388 15 1116 14 793 13 708
4626 1.0786206769493494 3.348673574830932 5.2119179004877143 193 180 163 2.0806925636179572 16 924 14 776 13 691
4625 3.303041925076406 2.8743324460373421 3.2048407818357521 196 198 185 0.74713878000057898 15 2253 14 769 11 853
4624 3.2920720338068445 2.8640293314754879 3.1892680050621669 196 198 185 1.0487761494280652 15 2254 14 768 11 852 28 2824
4623 1.4655783967289779 2.9119433844535689 4.9095039163270222 98 27 31 1.0733814173936289 16 877 14 734 13 1399 12 784 10 1710 9 1249 8 1638 7 490 6 552 5 714 3 761 3 1867 4 695 1 762 2 823
4621 4.184285670935262 2.3791825426637296 2.4286484825259649 185 139 111 1.330472103806418 22 1100 14 723 26 2096 44 993
4620 4.0579789415890373 2.3125866583146464 2.5576577976285626 144 93 80 1.6967382672294868 20 1239 14 706 48 3712 44 1682 47 3042
4618 1.4098419885578624 2.5568186283050749 4.9840030628479051 142 70 63 1.2612822217333093 15 954 16 816 14 673 10 1681 12 717 7 1306 6 1384 5 2348 4 2307 1 2409 50 4147 20 1097
4617 1.4072314558375429 2.5533302640789399 4.9842003880461938 142 70 63 1.1220251675818236 15 953 16 817 14 672 11 776 12 718 7 1307 6 1383 5 2347 3 2474 4 2308 1 2410 2 2483
4616 1.7256700280019339 1.1600019567530422 2.5790552278011174 186 186 158 1.1163227269460994 17 675 14 545 13 1286
4615 1.5386875801774871 0.89060084061163258 2.5643283467043854 126 126 92 1.087175911478538 15 720 16 595 14 499 11 1692 12 1746 13 482 10 1562 9 1102 8 495
4614 1.8621320539982025 0.77259838291016258 2.3922161946241274 182 182 157 0.62732588742107642 17 587 14 478 13 456
4613 1.5894595338142636 -0.055562849909311256 1.8304774619329354 182 171 153 0.42965798014691509 16 412 14 371 13 343
4612 3.858573729605776 -0.13864320070423566 2.9884655477526185 240 231 216 1.4696499248041539 22 517 14 364 45 1028 46 2284 48 470 48 3897 50 203 25 3643 44 690 43 754 42 349 41 630 34 1196
4611 1.6492072426038367 -0.10955094676463889 1.8734261101161198 143 129 111 0.46552374190123375 17 414 14 359 13 336
4607 3.6540461564557849 -1.4889369049269785 3.3107704002045169 156 126 92 0.9040131865377613 19 322 14 218 45 3901 38 2256 42 1815 33 1264
4606 3.8787343048706235 -1.597101497325415 3.1140368990753902 156 125 96 0.83337587499935883 21 1902 14 203 24 83 46 3205 47 3144
4605 3.7778230958684129 -1.6262239116593111 3.2004785013145671 110 76 43 1.2586691789638518 16 1358 17 206 14 199 46 1991 39 1827 18 325
4604 3.5563363880003021 -1.867257673181012 3.4298477560217218 158 128 92 1.2934802929281615 15 1653 14 173 48 1871 44 2227 43 2359
4602 2.7098540910531597 -2.1337063480956937 4.265561925155688 91 23 16 1.5786441987154025 20 285 14 157
4601 3.9260972018249509 -1.9525396514788695 3.1000638840972603 103 62 30 0.84663678611322313 15 1636 14 152 24 35
4600 3.922633505415408 -1.9438868901687723 3.0960471086366543 103 62 30 0.97327706251618329 23 203 14 151 36 267
4598 2.6886101193241987 -2.3871538057561814 4.2754820343189417 129 65 55 0.054640551633166251 20 245 14 127
4597 2.5527863208352164 -2.5152982969957232 4.4777157701440382 26 0 0 1.9372518202669633 14 123 41 1301
4596 3.0133950969379364 -2.4948974447975623 4.0187889437585964 91 22 15 1.0604263727145238 17 142 14 113 10 81 9 83 5 133 12 1420 4 1288 2 174 43 1475 33 1736
4594 2.6116133387714289 -4.0668353082331263 4.5798259442389258 96 74 51 0.29226864256439877 22 4069 23 4029
4593 2.8730377722537854 -0.26906032295939064 3.3896768158732513 134 100 65 3.4054296892759912 21 4777 23 3848
4592 3.7404555578868615 -2.2756936414034121 3.2932718042090774 128 97 69 0.82496381865171886 23 3228 45 5611 49 3808
4591 2.3840189261203411 -5.699337686356909 6.5674085198303622 67 54 38 1.4156915363745055 22 3519 23 2695
4590 2.0087326507246184 2.1655945793114006 3.1938522452073221 65 58 36 0.54803084184710704 18 2211 19 1031 23 1790
4588 1.70872484643995 0.89447847166893291 2.4551681388256315 163 166 146 0.74248522327440303 19 2098 20 867 23 2340 21 2315 22 2484
4587 1.9752489652188663 2.1580961691917953 3.1805633818219978 106 97 73 0.98196288815070165 15 2197 18 2209 17 2015 16 2603 23 3053 20 3146 22 2612
4586 3.9256108479278047 2.4486744850062681 2.6635197509426392 226 223 218 1.3050679997452557 19 3739 15 3576 23 3097 19 3187 18 2265 21 3420 9 1774 8 1567 7 1961 6 1346 3 649 4 575 1 626 49 4141 25 4593 26 3731 13 1999 27 4199 28 2830 44 2468 42 1607 41 1790
4585 1.7447039969351934 0.0076768796378262729 1.8168864273860239 244 198 145 1.2197817850431021 19 1921 15 517 20 2916 16 2387 21 610 23 2834 18 3488 17 3186 22 2929 14 2736 13 2431 11 3072 12 3061
4584 2.0261629865543203 3.4027795709950261 4.3300991575624916 202 193 192 1.2660662435211925 19 3757 15 3606 18 3657 20 3734 17 3358 16 3208 23 3128 21 3447 22 3176 14 2878 13 2600 11 3231 12 3525 10 3363 9 2646 8 3203 7 2876 6 2958 5 3226 3 3366 4 3185 1 3255 2 3357 26 3958 27 4413 30 2901 31 3306 39 2430 37 2448 36 2348 38 2923 34 2222 33 2349
4583 1.5063098851394401 3.4783676345761472 4.7839916106861589 184 155 141 1.3145573593496251 15 3603 16 3203 23 3447 20 4027 22 3689
4582 1.1031024779904668 3.2595040139652487 5.1796224328641376 177 170 156 1.2819371843349379 18 4214 21 4461 23 3622 19 4051 15 3925 14 3454
4581 3.4973536400297118 -0.95970438103033173 3.4108207954629455 111 90 72 1.898934952203724 21 3000 18 1779 20 2831 17 2523 16 2998 23 2205 45 5147 49 3355 50 5591 44 2565 19 1794 43 3188 42 2092 39 2276 38 2782 36 2231
4580 2.1327577195546117 0.6174900433097501 2.2469169445253843 148 144 118 0.70988713703826078 19 2955 15 2863 20 2994 16 2447 23 2298 21 2255 22 1675 14 2206 13 1894
4579 2.3825385318659378 -0.92735878178913278 2.1270788737049835 174 137 83 1.5611611669450931 18 3815 22 2866 23 3254 45 5637
4578 2.6978008581544644 1.5000632095636386 2.6554270516459382 124 115 92 1.9574228028200917 15 4404 21 4719 22 3929 23 3955 17 4188 18 4489 46 5254 19 4630
4577 3.8198507931816508 -2.4691422433584864 3.2559662504391227 96 71 42 1.4052145255728619 19 2676 21 2860 23 2082 20 1647 22 1320 18 3347 14 3039 16 3343 13 2312 45 5396 44 2501 43 3359 38 3079 36 2152 37 2582 35 2049 34 2030 33 2162 32 1625 32 2274
4576 2.2597632709685453 -1.2937426292445922 1.9255897584341068 176 139 85 1.2490514701915256 15 2684 17 2454 16 2976 19 3475 18 3405 20 3441 23 2733 21 2928 22 2184 46 4939 49 3801 47 4511 48 4471
4575 3.4776119029925421 2.8746425608710386 3.0558355000406441 130 135 132 1.083021741571937 18 1216 20 1337 17 994 23 1910 15 2261 16 1928 12 804 24 3761 25 4009 19 1223 28 2377 26 2104
4574 4.0315247680285919 2.5745338869491352 2.5471609281674255 216 203 185 1.1580328462945115 15 1070 18 1189 16 919 23 1888 19 1192 20 1328 21 1468 22 1140 24 2733 50 6017 25 3004 26 2120 27 2555 28 1817 29 2527 30 494
4573 1.5633509256378282 0.78162810163640528 2.5218363837594029 161 155 125 1.1693108227643376 19 2071 18 1990 20 2116 23 1500 21 2290 22 1705
4572 1.8250843297299097 -0.19604086200253246 1.7663741187822848 160 101 43 1.5198553640478258 18 520 20 520 17 392 16 359 15 451 23 1361 20 515 22 1520
4570 0.36576748430686346 -3.9861105429746813 6.2887349566402628 65 60 36 1.5882024458735071 15 2579 22 195 23 1223 18 2580 16 2184
4568 3.8021199565383452 -1.4389321549954093 3.1665316427761576 180 162 132 1.1190416332717044 15 1694 17 2483 23 275 20 344 21 341 14 1229 24 1888 45 4685 47 3169 48 3075 25 2146 44 2553 43 2860 42 1434 40 1173 37 1896 36 1788 35 1106 34 1722 33 1267
4567 2.3510803532709739 1.0594100228935903 2.4512999383003056 129 132 120 1.3415346745138865 17 1849 18 809 20 3046 21 3253 23 2368
4566 3.6457685364446877 -1.7262948732287806 3.3345830594350088 108 71 36 1.4267275818623453 18 1705 17 1449 23 238 15 221 21 296 22 303 19 266 13 1011 24 1852 45 3868 46 3196 48 1885 49 1527 44 2237 42 1805 41 1452 40 1146 39 1189 38 1489 37 386 36 295 35 323
4565 2.5897068564957517 1.7766223790537035 2.7074718674311091 198 196 181 1.2991745006452724 16 4269 17 4427 23 4095
4564 1.7901110959021187 0.15444929455803619 1.9620085504207891 234 233 203 1.1295871171302894 22 4127 23 4081
4563 3.7498545344938035 0.84406907016853228 2.8739952043484536 237 239 238 2.1238678579211405 21 4911 23 4072
4562 4.5990340251759703 -1.0768286148098212 2.3630492910608774 110 57 29 1.3922339542167788 22 4101 23 4054 11 4226
4560 3.5848167398789523 -2.7656210542350506 3.4936413228461789 133 109 81 0.99560548134885174 16 4217 21 4882 14 3965 12 4145 9 3293 38 3768 35 2936 33 2987 32 2787
4559 3.2188684277225259 2.2450918444983605 2.9195948497717708 85 69 36 1.260564952663062 23 4019 50 7072 24 5536 25 5611 26 4357 27 4788
4558 1.7006774081699059 -0.16348231042826494 1.7750035169213869 89 50 21 1.0246021564942709 22 4040 23 3999
4557 2.2005010790738369 3.4953774061079708 4.3208034334273675 166 138 119 0.18518964883137545 22 4016 23 3977
4555 2.1610105368716974 0.947790274117153 2.3712812347837589 195 197 179 1.4052872808309369 22 3994 23 3949 24 5494 49 4755 25 5564 26 4326
4554 1.9838765539562606 0.92125078785459313 2.3840162895889292 190 191 173 0.5876548802461693 22 3992 23 3946 24 5491
4553 4.389686969947082 0.32834385562370588 2.3979749857006381 219 220 204 1.2711876346746516 21 4785 22 3983 23 3942 13 3614 22 4047 11 4052 12 3999 10 3838 24 5495 9 3138
4552 3.6028872917632717 0.046062906984783158 3.1765131341631023 221 212 207 0.87026972125086555 22 3981 23 3937 45 5963
4551 2.0128252327116973 0.086891159784302702 1.9501250010126399 240 221 168 0.70342451251920102 23 3842 45 5902
4550 3.1063438027029386 -0.66766760289357352 3.7207579428764119 181 155 132 0.92841910454403165 18 4450 23 3840 46 5171 47 4916 48 4886
4549 3.7235036771773253 -4.1788350586912912 3.6121811078906716 52 21 0 0.46105664714061589 22 3853 23 3791
4548 1.5507616262397641 3.2243730634266772 4.8421839303903633 157 71 80 0.681221353513776 22 3834 23 3773 50 6895
4547 4.4757639653957275 2.2178265466294103 2.1620287206259134 133 80 61 0.91991838387116531 22 3833 23 3771 13 2954 11 3178 12 3150 10 2915 24 5250 9 2220 8 2252 7 1941 6 1319 5 1603 3 1748 4 1572 1 1676 2 1788 40 1989
4546 4.466381099698606 2.1442108754165781 2.1910347914531396 207 182 159 1.0056096756466717 22 3832 23 3769 13 2953 11 3528 12 3497 10 2910 24 5244 9 2216 8 2758 7 1935 7 2447 6 2002 5 2307 3 2443 4 2275 1 2375 2 2445 40 1980
4544 2.9489034259581279 1.7697524400870883 2.9027592952803531 186 179 152 1.1805527656469155 22 3824 23 3757 47 4946
4543 4.5780385450340342 0.39685529898066502 2.2534995448658131 201 143 142 1.4951522114832205 22 3781 23 3716 24 5339 9 2543
4542 1.895410066714154 0.39725633400599158 2.0671387201824238 225 216 187 0.73205420977112845 22 3779 23 3709
4540 2.2089190617190626 -1.2882401058330486 1.8082147677945095 124 93 36 1.2257226400912691 22 3743 23 3674 45 5877
4537 2.3756108324398313 1.350655898411026 2.4504362152236636 173 166 140 0.21635699427461447 21 3855 45 5554
4536 2.2362616718417256 1.0877309340139123 2.487217149581205 200 202 181 0.16400547439261237 22 3628 23 3580
4535 4.5227986851534654 0.84637696325978795 2.2582676435690865 168 51 69 1.3523070666321582 22 3618 23 3577 13 2905 11 3117 10 2868 24 4734 9 1684 6 1252 4 441
4534 3.4315204529676415 0.25848929643256097 2.8581833998422752 62 46 31 1.4713483809266834 22 3338 23 3558 47 4759 48 4715 49 4431
4533 2.4277421106444752 -0.027921493049950518 2.0266076520515406 230 222 182 1.1764296160450418 45 5848 46 5174 47 4922 48 4892
4532 3.7409400858698652 -0.5909190944926378 3.139136835428685 223 217 203 1.3146145697697595 22 3575 23 3544 47 4742 48 4701 49 4410
4531 2.4019453554720753 -0.45970945660979995 1.9575420649181079 207 173 99 0.65934278123367962 22 3301 23 3530 45 5754
4530 4.4192610123554674 -1.2281314888220216 2.5568910295806853 210 203 186 2.0508790208051448 21 4350 23 3525 11 3686 24 4636 37 2622 13 3148
4529 4.6801467960616838 -1.4997378979402216 2.3318718822781923 135 99 73 1.1047261110700473 23 3513 11 3678 10 3211 9 2486 8 2656 38 3327 37 2618 36 2216 35 2388 34 2369 33 2498 32 2041
4528 2.1070827088792363 -1.1258609866253912 2.110556149470781 170 131 64 1.0517240133072601 22 3547 23 3510 46 5081 49 4382
4527 2.6747985863910548 -2.4787517267455144 4.3221132217503344 127 73 61 1.3221607237356112 21 4323 23 3509 14 3552 13 3334 11 3867 12 3818 10 3683 45 5617 46 4950 44 3053 41 3351
4526 4.0811603078972931 -1.8707518472445885 2.9385144094598332 148 121 92 0.98546356332132923 16 3637 23 3508 38 3484 37 2950 36 2816 35 2682 33 2763 32 2575
4525 4.0782615157500848 -1.9423237012141712 2.9453575099439147 111 78 44 2.4827745737578417 17 3802 23 3505 49 4378
4524 3.6541748786194628 -2.1659968330433865 3.362794294670199 127 97 69 1.8225502382716514 21 4317 23 3503 24 4604 49 3818
4523 2.1804460996263972 -1.0967614599796278 1.7380752983563592 153 116 61 1.1999309111342031 22 3542 23 3498 45 5817
4522 3.3212569857421683 -2.8375054987411694 3.7112427652890592 116 101 68 0.93996248001848282 16 3617 23 3493 14 3536
4521 3.8354558614791094 -2.9460469366625168 3.3376199846290353 81 45 21 1.384599699660203 16 3613 22 3525 23 3492
4519 3.84139470004515 3.2544110683821961 2.6583481693518354 182 163 165 1.1242672917827634 21 3993 23 3471 24 5097 1 2447 27 4447
4518 1.6832606926761782 3.9141397366016806 4.7140925176115127 198 207 207 0.85671533856594073 22 3194 23 3459
4517 4.3083196814647771 2.5624538529513692 2.2934733902834017 213 211 197 1.0416155988149607 21 3960 22 3478 23 3451 13 2015 11 2641 12 2646 10 2399 24 4826 8 2277 7 1278 6 1356 5 1639 3 1785 4 1607 1 2394 2 1820 25 5200 28 3154 29 3985 31 2788
4514 4.5752598113787357 0.86336259702767049 2.1983187738370313 165 53 69 0.78877443805429581 22 3370 23 3367 11 3118 10 2281 8 2195 6 1954 5 1550 3 1676 4 1504 1 1604 2 1704
4513 4.5812289922321696 0.52196194074902924 2.2418025449362764 210 144 146 0.17729075467726385 22 2978 23 3348 24 4230
4512 1.591069423358447 0.71153736908733523 2.4896150106647741 108 103 73 0.95590331801399275 22 2991 23 3346 24 5172
4511 2.7543912797324737 0.58711678411457513 2.5410428290079659 172 155 114 0.81849737574716863 23 3343 24 4688 50 6545
4510 4.525899577921753 0.38485288349419844 2.3058130646600072 169 60 81 0.95752347308685237 21 4129 23 3336 11 3090 13 2877 12 3073 10 2243 24 4708
4509 2.0744069407346362 0.19511235950586761 1.9675156617130416 227 219 182 1.7427721795164985 22 2938 23 3307 24 4960 49 4423 46 4998
4508 2.0698033543324859 0.15321941540444878 1.956841971339647 198 181 135 0.98915772651401301 22 3323 23 3305 24 4956
4507 3.0196309234087328 -0.47523172927820462 3.8020215340351688 180 159 136 1.2685741892027491 22 3316 23 3304 48 4270 49 3906
4505 2.3555263727162004 -0.14518916825588862 1.9864572710439186 196 170 107 1.9998914709204512 21 4111 23 3293 24 4623 49 4202
4504 2.4425039680202851 -0.30436625451215843 1.9904858080392949 198 164 103 1.6598551822611782 22 3308 23 3282 45 5659
4503 2.4447929355573468 -0.50234446326198134 2.0067922279890169 233 201 128 0.52185307364886335 21 4096 23 3273 45 5647
4502 4.6650157861057888 -0.96515479756346556 2.2979180574538645 179 149 115 1.6913962946083738 22 3291 23 3267 11 3043 9 2117 8 2113 38 2788 33 1294 32 1171
4501 3.0726856725999938 -2.5188866825144056 3.9829421515940973 91 11 12 0.78977339988087925 21 4039 23 3231 46 4743
4499 2.2104271852421729 -1.2220750735037413 1.8973958578700458 172 131 75 1.392984632169705 21 3646 23 3227 45 5612
4498 4.1974031305277686 2.751740170624041 2.3743056047722444 183 176 165 0.83958910678223775 18 3122 21 3477 23 3148 14 2367 22 3490 13 2029 11 2657 12 1948 10 1689 24 4451 8 662 7 439 6 466 5 609 3 682 4 606 1 1732 9 1796 2 742 25 4972 26 3753 27 4213 28 3162 29 3702 30 1858 31 2808 42 1645 41 2331
4497 1.9421758000860063 3.5688932454900422 4.3822751498109893 204 216 218 1.1010707289165227 23 3146 11 3246 10 3007 9 2654 8 3217 7 2886 6 2971 4 2864 1 3269 30 2910 31 3389
4496 1.6912286053331893 3.6695627683206391 4.6104427837644559 201 190 190 0.22225055950668593 22 2711 23 3144 46 4380
4495 4.2118795783498992 2.715713539973843 2.3601170431623371 214 216 205 1.1720533495417227 21 3474 23 3140 14 1664 11 1863 12 1941 10 691 24 4447 4 599 7 1296 26 3416 27 3876 28 3161 29 3699 30 1851 31 1827
4494 4.1925926329705323 2.6619156839502298 2.3877307567263877 224 218 206 0.81425548089716449 21 3464 23 3133 14 1657 13 1414 11 1855 12 1929 10 683 24 4443 26 3407 27 3872 28 2860 42 1221 41 1832
4493 4.1911868335020142 2.661152828791725 2.3867713134320643 224 218 206 1.0648527070454312 21 3465 23 3132 14 1658 11 1856 12 1930 10 682 22 2030 24 4442 7 429 8 1580 26 3408 27 3873 28 2861 29 3301 30 1846
4491 4.2789315094513798 2.4845062667554925 2.3227220374059345 211 198 181 0.3557236608642067 21 3444 23 3114 8 1569
4490 0.9901326906261414 3.4565145728774453 5.2438669025406055 187 191 174 0.95972528175874205 16 2661 23 3108 17 946 12 1990 11 937
4489 1.0980458561816622 3.1879734956875208 5.1741110273042308 175 172 153 0.91307710396086517 16 2641 21 3399 23 3089 13 2031
4488 1.0592340658747048 3.0676885706263377 5.2309184453231525 170 163 143 2.0181411981958615 16 2632 18 3051 23 3079 14 1642 19 2334 12 2667
4487 4.4595605313022446 2.0603291187632351 2.2115417745746599 201 198 191 1.2192807486578461 22 3439 23 3073 11 1776 10 1628 24 4387 9 1177 6 407 4 525 2 660
4486 4.0532219099880074 1.9505993490981468 2.5951997724285225 216 192 161 1.4015284268423847 20 3148 23 3054 14 2276 13 1960 22 3423 12 2596 45 5587 8 1518 7 1237 4 521 1 550 47 4692 48 4446 49 4349 44 2668 41 2638
4485 2.4489534443563401 1.5059655493586093 2.6162175209322416 172 174 152 2.0790519485734777 17 1924 20 3641 21 3862 23 3008
4484 4.3434101740111499 1.339029175987887 2.3828092589219438 194 168 119 0.78155480831207746 22 3061 23 3001 24 4320 4 477
4482 4.5483990547868025 0.89234887304661448 2.2277869000958712 207 146 135 0.8028458019070992 22 3009 23 2962 13 2489 11 2515 10 2285 24 4266 9 1688 8 1451 6 1257
4481 4.4139204765352309 0.90324532540292712 2.357163447945049 228 207 202 1.4065808915020901 22 3373 23 2961 13 2909 11 2516 11 3120 12 2542 10 1536 9 1693 8 1453 7 1189 6 338 5 1552 3 2383 4 1505 1 2330 2 1707
4480 4.5383288660097794 0.79048998688779248 2.246348263610376 219 162 159 1.0452009639702424 22 3002 23 2951 24 4728 7 311 5 443
4478 4.544866560992225 0.58888280495144774 2.2620017440669629 186 100 109 1.7444539101586654 23 2930 13 1887 11 2496 10 1497
4477 4.5393985344725438 0.25759351422665477 2.3112497876681406 173 66 84 0.8113041432876178 22 2959 23 2895 11 2463 10 2236
4476 4.5703044904694625 0.24742610006363205 2.2705170665788557 200 187 169 1.0165696316193942 22 2957 23 2893 11 1609 10 1458 24 3394
4474 2.3510891506550355 -0.18917665219603055 1.9979359510873613 234 206 139 1.1430041941116615 22 2917 23 2827 48 4700
4473 4.629439931785007 -0.98956413365456308 2.3306919684933076 104 61 31 0.76773700463216288 22 2871 23 2798 10 2171 9 1591 8 1316 38 2290 37 1923 36 1808 35 1140 34 1144 33 1293 32 1169
4472 4.6270899261857945 -1.0879543426915161 2.3458740468710992 175 129 95 0.67429896417368895 22 2242 23 2794 11 2387 13 1772 10 1350 9 1586 8 1306 38 2282 37 1282 36 1183 35 1134 34 1133 33 1284 32 1161
4471 4.6890202795785694 -1.2881150967672474 2.2976216721879728 123 84 55 0.92720394502348324 22 3276 23 2779 11 2379 38 2776 37 1906 36 2218 35 2390 34 2096 33 1834 32 2045
4468 3.9630018223475871 -2.6741646065617166 3.1353155164657975 81 55 28 1.3674851190840585 17 3475 21 3581 23 2719 12 2938 10 2717 7 1750 39 2798 20 3377 38 3307 36 2455 13 2292 35 2541 34 2510 33 2642 32 2269
4467 3.5558418339175408 -2.9424326169420949 3.4899884504380796 125 95 69 0.91029997039481314 17 3775 23 2713
4466 3.0126312218413345 -3.9859906746195417 4.1115875036009655 101 81 57 0.25417744379066654 20 3343 23 2687
4465 3.0919923795564861 -4.1618875627450764 4.0601735476390122 102 77 55 1.1255589606699301 19 4135 23 2684
4462 2.2740895962213434 3.3865405805762059 4.0993850983739835 176 140 121 0.41107187320556504 21 2649 23 2609 50 5442 24 3770
4460 4.261389890032139 2.424440627754195 2.3431088685895558 139 103 89 0.72626753253804943 22 2674 23 2576 13 1390 11 1822 12 1903 10 652 24 4425 8 614 7 409 6 443 5 568 25 4609 26 3393 27 3858 14 1631 28 2847 29 3283 30 1819 31 1748 42 1193 41 997
4458 4.4312497423964636 2.1788184648674704 2.2009575130815948 146 106 81 0.87264138119701318 22 2649 23 2544 24 3679 25 2940
4457 1.0490466024405354 2.7871058825822672 5.2831683520312183 156 144 122 1.5602334261814048 19 2298 21 2519 23 2518 49 2312
4456 2.9843354874580013 1.648101968799784 2.854148355485949 122 99 67 0.65717183920915734 22 2570 23 2466 49 4062
4455 3.4957620059899561 1.4782781271393985 2.8383914661497496 118 105 87 0.99921306134312937 21 2420 22 2551 23 2450 50 5861
4454 3.4193756621926554 1.3793766577579873 2.8645584923246212 194 179 161 2.1810871257039399 19 2189 23 2435 46 3656 47 4429 48 3515 49 3622 50 6324
4453 2.9949009611749489 1.3860910515865548 2.814479900364887 182 155 112 0.60519839226013505 22 1837 23 2431 48 4373
4452 4.5232988537959891 1.2365779906015484 2.2103197130941319 216 200 179 1.0779167804854977 22 1825 23 2425 13 1274 11 1699 24 3571 2 611 1 504
4451 3.2163960355338386 1.3348892421233183 2.8980766675421963 120 91 54 0.59299757102585049 20 2200 23 2423 49 3616
4450 4.5216178169837429 1.2127049527909406 2.2264148108076882 173 143 108 0.90716486696926157 22 2530 23 2422 13 1271 11 611 12 541 9 474
4449 4.5216178169837429 1.2127049527909406 2.2264148108076882 173 143 108 0.90716486696926157 22 2529 23 2421 13 1272 11 610 12 542 9 475
4448 2.7920107808692047 1.3287767251143181 2.6838546183657508 154 125 83 0.80801548404287071 19 2184 23 2419 24 4264
4447 2.7900939074421403 1.3287766783377855 2.676882466993876 154 125 83 0.99320781022938442 19 2183 23 2418 24 4265 50 6317
4446 4.5389894235829011 1.1400843127525417 2.2443483843233754 203 177 130 0.52734673728698522 22 1810 23 2406 24 4301
4445 3.1254474031622874 1.1904500699551932 2.8697901846956499 140 103 61 0.51713206375428611 22 3040 23 2398 49 4298
4444 4.5326376485216011 1.0471667182509909 2.2340907955926061 132 36 38 0.34100854689798954 22 1786 23 2390 12 517 24 3528
4443 2.5773478570618749 1.1127163893121281 2.5801356873128216 183 174 143 0.71645342069634133 20 3048 23 2381 50 6300
4442 4.5663357832770428 0.92190877129362947 2.2251427941824931 165 66 77 0.43254577707351788 22 1756 23 2373 24 3509
4440 2.2382904058648116 0.92344542228895254 2.3905037281767356 211 214 195 1.3268292454927006 19 2110 23 2349 50 6284
4439 2.2414507252442339 0.92157838107532819 2.3585043367310901 211 214 195 1.1959150940575014 19 2109 23 2348 45 4884
4438 4.5580583047228078 0.61523005674900599 2.2313327825273004 206 121 134 0.55336797052621123 22 2444 23 2330 13 1228 24 3462
4436 4.5615840574603537 0.34904552251342535 2.264568122584719 167 49 71 0.91869623357117136 22 2404 23 2288 11 1618 13 1873 10 1466
4435 2.5898500809557836 0.43794043158757701 2.3358922077419537 184 178 146 0.88804941079147615 20 2054 23 2278 48 3306
4434 2.5719239965178913 0.12009718268602571 2.2143868404338485 200 192 155 1.5310341415994784 22 2360 46 4545 47 4343 48 4532 23 2249
4431 2.9966752809238733 -1.2183694773987777 3.8918477839026817 114 90 62 1.6030160481115157 21 2985 23 2200 50 5603
4430 4.6487494429639034 -1.2031430903960689 2.3378981834374155 161 124 91 1.0660893399030997 22 2228 23 2169 10 1337 9 1574 8 1299 38 2276 36 1794 35 1713 34 1121 33 435
4429 2.7905224846923433 -1.9120190663354104 4.1662258120692828 142 111 83 1.4638313221960457 21 2951 23 2168 49 2578
4428 2.6686628790538793 -2.0356328817379841 4.2737656887939846 84 24 13 1.9172842256853764 20 2783 22 2224 23 2161 14 2039 12 2988 45 4657 47 3165 48 1925 49 1564
4427 4.5432049923131084 -1.662022618237265 2.4693574799158937 175 146 116 1.7239881839031168 21 1844 22 2177 23 2128
4426 3.253676166553257 -2.3459798673774284 3.7727375845730591 79 11 2 1.3970110100543993 15 2638 23 2122 9 2073 48 1815
4425 2.7124251744744474 -2.6631208181488848 4.3034923890689303 106 42 32 0.92862762104919772 19 2713 23 2114 47 3101 48 3016 49 2531
4422 2.7615327025757384 -2.7711021865807988 4.2692860064751814 117 50 41 0.85762555205520374 20 2723 23 2100 49 2516
4421 3.1774024444597981 -2.6729128242658269 3.8886914435167501 92 30 21 2.2396971152942067 17 3053 23 2092 45 5070 46 3880
4420 0.38013797337121308 -3.8870487535865665 6.2423667758750954 54 54 27 1.2690863574147127 16 2189 23 2088
4418 2.1216236433623101 -1.2792838344411082 1.7713627682333548 153 127 68 1.5757558633356024 20 1743 45 5394 22 2174
4417 2.1513032623943005 -1.2154250735398355 1.6524949614467301 151 120 65 1.6733599393548098 23 2076 45 5395 22 2173
4416 3.8868273075965019 -2.9016270178667729 3.2191559708015864 70 35 13 0.46880819482523828 16 2900 23 2041
4415 4.2555444680280168 -2.7613964645268152 2.8675423245243925 101 70 50 1.5883280526597734 15 3290 19 2636 23 2032 11 2262 36 2454 37 2573 33 2440 32 1976 34 1606
4414 3.889065181907903 2.9780471403233277 2.6399760098630534 164 123 102 1.4330614465763425 21 1539 23 1951 25 3092 27 2620 29 1357 30 597
4413 3.8590481369642826 2.942994428420739 2.6739005477732878 166 120 107 1.0774751749139646 18 1266 23 1948 24 2804 50 6071 22 1177 25 3085 26 2168 28 1847 27 2611 30 1318 31 1862
4412 4.0848982938809337 2.7682643856861082 2.4825179779935946 217 213 204 0.22468674612650363 19 1265 23 1938 26 2890
4411 3.4354412113733681 2.9757297950626653 3.0705836233157413 190 189 184 1.6451487386195773 21 1501 23 1935 12 833 10 737 15 2279 9 1242 5 663 30 1863 13 2042 31 2460
4409 4.2199572736742601 2.6900835567002486 2.3466446851130556 189 185 174 1.8784006619342102 22 2705 23 1931 25 3068 24 3767 27 2616
4408 4.1858043406351086 2.6985091822538156 2.3825985297615997 186 180 172 0.9028684907780411 22 2709 23 1930 26 2163 25 1417 27 2610 30 550
4406 3.4656685695279057 2.9416588692542884 3.0438495937749255 220 226 224 1.4612296211251252 18 1238 21 2653 23 1921
4404 1.4649914447083765 3.4576973628777372 4.8368805362924956 154 93 98 1.5968168540131138 19 1175 23 1897 49 2400 50 6085
4403 4.2111214347053147 2.475011832149224 2.391455496152362 156 114 97 1.2916717711078027 21 1456 23 1879 25 3000 26 1151 27 2561 28 1823 29 1224
4402 4.2161121319508883 2.4308220782626022 2.3802846364607766 170 125 104 1.7745907287390166 22 1116 23 1875 24 2704 25 2984
4401 3.5691381387007497 2.6068192235620797 2.9922088067879291 220 226 224 1.1917948800205505 18 1136 23 1870 24 3718 25 2948
4400 4.1044904549138197 2.3722948906223196 2.5047930583327669 142 95 72 2.0386112082411989 21 1407 23 1853 49 3785
4399 4.321724741970133 2.1791201816014398 2.3116267526729546 216 217 207 0.92347638345498628 22 1054 23 1834 25 2914
4398 4.4120919780752947 2.1472785023886654 2.2281303785871245 195 158 132 1.3031545602630181 21 1371 23 1831 24 1190 25 2918
4397 4.441914187430636 2.114046927097907 2.2088724832430695 182 145 121 0.72268641295973468 22 1958 23 1826 24 2630 25 2911
4396 3.2339481231708973 2.3066177675819128 2.8999750901369357 84 67 39 0.54710575916236603 15 2203 23 1822 50 5995 25 4560 26 3340 27 3810 28 2803
4395 2.9594188510309993 2.0435904964968836 3.048064439982316 149 150 136 0.76600409903179612 21 1272 23 1783 50 5957
4394 2.9145153813166655 1.9238271468931547 2.9396677549384687 148 148 127 0.15633368800009831 19 983 23 1763 50 5937
4392 2.5650402686073481 1.7074529711742521 2.7078632505590257 204 202 187 1.0236803379329278 20 1074 23 1744 50 5897
4391 2.0099953277890421 1.4850051515561951 2.7221056311434597 191 195 172 0.42873189241860071 21 2427 23 1681 24 2320
4390 2.3649547657224166 1.4221275565355498 2.5955918691941249 175 170 145 0.69905122018053945 20 998 22 1846 23 1672
4389 4.4314097133845891 1.2503322253177551 2.3153321985371544 174 160 113 2.3964574533285807 21 3293 23 1664 13 1923 12 1764 10 1569 24 2442 8 1482 1 510
4388 4.5037738367546201 1.2003136197866737 2.2390397570335789 219 197 173 0.51772317241991972 22 1816 23 1655 13 492 12 537 24 3559
4387 4.5428600654400455 1.1852732123081957 2.2062921512693028 177 152 111 0.28538901878982009 22 1813 23 1652 24 2430
4386 2.8230717914916843 1.2996962544748338 2.6489618413135307 160 131 87 1.4052261572705751 21 1057 23 1646 46 3631 50 4993
4385 3.2578343766013362 1.2450414912050729 2.9054501672343234 99 71 31 1.2416812347851769 15 756 23 1639 49 3608
4384 4.5799077084540585 1.1098169049502122 2.1807633674404556 140 57 44 1.321251389640991 22 849 23 1632 13 486
4383 4.0148162735400144 0.9924807523092658 2.7492967920058446 218 220 215 0.91783721885427239 21 2333 23 1599 24 3513
4382 3.238891262141832 0.88832547186945221 2.9280877204182945 95 62 27 2.3232328979033943 15 1959 17 1793 23 1564
4381 2.676924529280142 0.89262965332152022 2.5570499997373202 222 221 203 1.6205849909619232 21 2308 23 1553 46 4201 47 4057
4380 4.5862615720905628 0.7439613452982563 2.2117923207354657 204 111 122 0.56844192312630604 22 1707 23 1544 24 2305
4379 4.610143651117256 0.71948722951752164 2.2026621069814487 225 148 154 0.65778359151494736 22 1702 23 1538 24 2302
4377 4.5154140815050328 0.59599238642327845 2.3039018859100167 232 181 178 0.41667771263927283 21 2249 23 1507 24 640
4376 4.292882069231081 0.28060597746256405 2.5475854574341357 212 212 204 1.9161063828808125 21 699 23 1458 24 2182 47 2337
