# 3D point list with one line of data per point:
#   POINT3D_ID, X, Y, Z, R, G, B, ERROR, TRACK[] as (IMAGE_ID, POINT2D_IDX)
# Number of points: 372, mean track length: 4.879486597001363
5354 3.2135623766252226 2.5136877331258818 12.900238208627638 19 19 17 1.0828695051163568 34 6774 33 5988 25 6860 25 7172 27 7459
5355 3.3561842319567958 2.5741129842225439 12.897294001231522 32 34 37 0.73424322976010581 35 6669 33 5989 27 7147 26 6239 32 5606 15 6815
5356 7.436965688895059 3.2524062375191352 11.313574601021337 169 161 145 1.2559981365410311 34 6168 33 5992 25 7169 27 7488 26 7145 32 5597
5357 2.8449456904725783 2.9019174018677387 13.262385952654077 123 117 110 0.57741101911909909 34 6148 33 6012 25 6488 27 6148 16 6507
5358 2.8895354203691022 3.0073344245900944 13.244661523715036 129 119 116 1.2837667866779843 34 6517 33 6015 25 6501 27 6734 16 5940 15 6298
5359 4.06997235255451 3.1799070344913321 11.159232648796193 118 110 102 0.20716452611501138 34 6553 33 6024 26 6684 32 5631
5360 3.6355079396697332 3.1997124889269966 11.83035399788948 26 26 44 1.0336354387368003 34 6195 33 6026 25 6531 27 6259 26 6974 32 5888
5361 3.6412582122855284 3.2861559773290234 11.835053194309591 111 101 93 1.3528064836421871 34 6200 33 6031 25 6003 26 6700
5362 5.3126647402477607 -0.95065136162443653 12.178889987760281 255 255 255 0.82770783431625838 34 6568 33 6043 25 7232 26 6998
5363 3.6125224692323354 -0.40651401877182425 11.811606223036744 83 86 77 1.3340376664978355 34 6606 33 6081 25 7273 27 7560 26 7038
5364 5.4816266528088233 0.2351855563317525 11.558180567316597 62 65 58 1.0931495012929582 34 6651 33 6119 25 7024 27 7326 26 6784 32 5715 16 7072
5365 6.6463614268480846 0.34645941070463165 11.415395609977377 30 31 24 0.49163525820938853 34 6662 33 6121 32 5709
5366 3.4329767730021175 0.14456682967000703 11.997833564812762 100 95 87 0.36141745757161109 34 6650 33 6136 32 5729
5367 3.4587966721693686 0.30451143891302257 12.073842658249864 81 78 72 1.2510871756773287 34 6669 33 6156 25 7058 26 6824 32 5466
5368 2.6356685618519129 0.2722786193494155 12.254174810702381 106 99 94 0.94554766097433218 34 6346 33 6159 32 5470
5369 2.5788534986209872 0.34666655481903608 12.372507316891628 98 88 82 0.44698443225339757 34 6352 33 6163 32 5988
5370 2.6113946126995633 0.405975820581368 12.382852576202835 31 29 27 0.42137232259913648 34 6353 33 6168 32 5755 33 5856
5371 4.0016942478145578 0.89604406292194383 11.371857754383402 20 34 86 1.3442155132532116 34 6365 33 6178 25 7336 27 7377 26 7107 32 5761 23 7345 16 7403 15 7645
5372 6.9817682556160214 1.5975775241971968 11.220053108984079 139 113 79 1.3517146491535272 34 6937 33 6189 25 7082 27 7632 26 6838 32 5501 16 7410 15 7625
5373 4.8214477993073306 1.5335501379623766 10.856386322507348 138 127 112 1.550340518371671 34 6718 33 6202 32 5784
5375 5.9406507418201011 2.5997502221693707 11.808440649254596 77 62 50 0.6020422370397579 34 6484 33 6253 25 6432 32 5834 26 6620
5376 4.0865014632214685 2.5022263036286194 11.576657232538546 252 243 205 0.82045675946092178 42 5084 33 6267
5377 5.9295633308765092 3.3329677853822317 11.706591523997801 169 149 134 1.178272553495207 34 6805 33 6276 25 7181 27 7697 23 7669 16 7648 15 7692
5378 5.8321677888483823 3.3892114857784899 11.546361721122405 182 165 147 0.60371618573673524 34 6811 33 6283 25 7183 27 7499 16 7475 15 7497
5379 3.6162000090361124 2.9996561817223109 11.710763838202505 26 26 40 0.43441434182228444 34 6798 33 6285 26 6960 32 6080
5380 5.7197999420962526 3.4088850416394183 11.548933546321619 195 184 164 0.44252169325265589 34 6817 33 6286 25 6893 26 6945
5381 3.6292957714765635 3.050262122459098 11.686001398429489 95 83 73 0.65131019781211652 34 6533 33 6290 25 6903 27 6769 32 5878 16 6548
5382 3.6524971855265598 3.0739484696683221 11.650156680848369 24 24 39 1.2542592777493504 34 6804 33 6294 25 7200 26 6967
5383 4.9658026045178607 -0.71197431786464316 12.27903517763828 52 66 39 0.92691508076023366 34 6838 33 6332 25 6955 27 7539 26 7005 23 7228 16 6978 15 7559
5384 3.7431491378705739 -0.40008765749090025 11.801025055945166 94 88 80 2.0044908353593196 34 6852 33 6350 25 7270 27 7561 26 6772 32 5928 23 7254 15 7582
5385 4.2675115054609289 -0.35226092703525202 11.721776087090161 29 27 27 0.19403222725849589 34 7054 33 6353 32 5927
5386 4.9852138988056911 -0.38824335214962047 12.196323389421277 23 37 23 1.4710610166203637 34 6856 33 6354 25 7260 27 7281 16 7013
5387 3.0922212323416089 -0.086257872336124503 11.97291618511329 103 98 85 0.28449167856091562 34 6875 33 6388 25 7299 26 7065 32 5959
5388 5.2157727864894579 0.11340356683869855 11.951894284745169 75 72 60 1.0696370337271268 34 6631 33 6389 25 6670 26 6438 32 5713 16 6231 15 6537
5389 2.636365611179655 -0.076639788105107728 12.087644229280864 27 25 22 1.077042703840932 34 6876 33 6391 25 7305 26 7075 32 5969
5390 5.2045454940689853 0.139147713762897 12.052068826276505 71 70 64 1.2342589755410356 34 6636 33 6397 25 7290 27 7767 26 7052 32 5716 23 7298
5391 3.1254729304773918 0.017755243189769784 11.98409725168063 105 98 80 0.83597612148176947 34 6885 33 6401 27 7313 32 5970
5392 3.1172520281168898 0.24449385373164215 12.07960422730347 49 48 49 0.2351627606191676 34 6899 33 6409 32 5740
5394 2.6569475732163892 0.39592656105924473 12.268198226619482 41 39 36 0.52877975436968749 34 6682 33 6419 25 7330 26 7102 32 5990
5395 3.8903447820130586 0.94602609534432747 11.405747055016542 17 34 79 0.19829323341447277 34 6693 33 6432 32 6001
5396 5.7988820124780043 1.6424802266714866 11.450464401405318 63 43 31 0.51428628081921113 34 6943 33 6444 25 7100 27 7641 26 7116 23 7387 15 7425
5397 6.714203710360426 1.7789622840363248 11.144140462524375 115 81 56 0.67569506745738006 34 6948 33 6448 25 7355 26 7111 32 5778
5398 6.4190434219959069 1.7472398386709342 11.204380570967542 104 85 65 0.54458807374737439 34 6945 33 6450 25 7358 27 7644 26 7112 32 5782 16 7428 15 7644
5399 6.8496401473555517 1.8134726684732425 11.110502911796946 102 89 67 1.1440520443178455 34 7122 33 6453 32 5781
5400 2.7915945655836287 1.8825185492877174 12.856713469330133 27 28 25 1.6795023954614494 34 6964 33 6475 25 7143 27 7094 26 6919 23 6614
5401 6.0547226898268436 3.3671403173871637 11.539729432154529 220 201 182 1.0165308441691037 34 7017 33 6500 25 7398 27 7701 26 7319 15 7872 23 7835
5402 5.9316230043354761 3.3581203887344424 11.604135015152632 207 188 171 0.74599429011610119 34 6808 33 6501 25 7399 27 7699 26 7149 32 6061 16 7470 15 7693
5403 2.8775805631054201 2.9623191323362139 13.268392292424549 24 23 23 1.1847736930570627 34 6994 33 6504 25 7187 27 7478 26 6963 32 6099
5404 2.8719406934620584 2.9577576215360111 13.25135799380632 24 23 23 0.66602800014236463 34 6993 33 6505 25 7186 26 6964
5405 3.9335966829548674 3.0805867024918343 11.206199870491982 19 22 45 0.2870733682210484 34 7014 33 6514 25 7419 26 7179 32 6079
5406 4.5879013039205541 3.3359928672513677 11.090497343352006 127 97 46 0.94149313907926213 34 7171 33 6524 26 6962 32 6088
5407 3.8152362878890891 3.3429772645262359 11.481268937551674 109 102 95 0.31069725582908314 34 7033 33 6527 25 7432 27 7516 26 7192
5408 3.8159980775579032 3.3439732887001403 11.482155456871222 109 102 95 0.44912698509003285 34 7032 33 6528 25 7433 27 7515 26 7193 23 7184
5409 3.8030007216378938 -0.43727805521220392 11.774518273771204 60 65 68 1.0226406407907402 34 6850 33 6548 26 7234 25 7266 32 5921
5410 5.0163748340082295 -0.21529010719871058 12.144988886093524 102 99 93 0.92226425569757386 34 7065 33 6557 25 7466 27 7749 26 7231 32 6130 16 7328 15 7763
5411 5.0273257679690371 -0.1464860876628343 12.08384979815092 77 68 57 0.76228346884458209 34 6870 33 6559 25 7274 27 7752 26 7235 32 6131 16 7527 15 7767
5412 3.1696284990211243 0.13161031226218581 12.036320313597178 102 95 83 0.45964588087072827 34 7090 33 6585 25 7496 26 7272 32 6159
5413 2.6098250059432897 0.10805183616793268 12.165570225580217 42 41 36 0.77255601756862013 34 7089 33 6586 25 7322 26 7080 32 6160
5414 2.9963205521408223 0.7833558948898669 12.266878897076868 40 40 39 1.9104086656960433 34 7101 33 6593 32 6170
5415 6.5856084103870494 1.5234671126633039 11.19102149923938 139 117 89 1.382579223453454 34 7225 33 6600 25 7630 27 7932 26 7280 23 7895 16 7715 15 7808 15 7938
5416 3.8745024226829976 3.2015702444926384 11.33503211254023 22 23 43 0.90655407934320031 34 7027 33 6649 25 7568 26 7336 32 6216 16 7490 15 7733
5417 7.1932416856655204 -0.57961184693041889 11.218486967185033 4 4 4 1.1137430202040122 34 7179 33 6660 26 7345
5418 5.5055042953034761 -0.65200155369624901 11.651225434885434 242 237 230 0.93384566232884103 34 7178 33 6661 25 7576 26 7347 32 6233
5420 5.2310510309406748 0.045992836299336516 11.787001854409651 89 85 77 1.3583904834897766 34 7195 33 6673 25 7476 27 7764 26 7239 32 6244 23 7737 16 7047 15 7313
5421 3.2158292273095479 0.60313925178584504 12.216264200920572 44 44 42 1.1799175494641583 34 7208 33 6687 25 7504 32 6253 23 7750
5422 7.206891616845831 1.4804829514466693 11.315468359306626 71 57 45 1.3260192182610016 34 7282 33 6694 25 7623 27 8010 26 7274 16 7797
5423 3.1490739640913654 1.0570019771944394 12.321051737468792 15 14 14 0.66190302894275788 34 7219 33 6697 27 7927 26 7297
5424 3.1490739640913654 1.0570019771944394 12.321051737468792 15 14 14 0.66190302894275788 34 7220 33 6698 27 7926 26 7298
5425 6.8316764992272043 2.4030405126232597 11.271705539828663 111 102 88 1.4648394463466905 34 7290 33 6714 25 7648 26 7304
5426 5.6202045526282012 0.3085424425967917 11.544566876721865 61 68 56 0.97928149626659966 34 7272 25 7693 27 7998 26 7435 23 7955 16 7785 15 7991
5427 2.8272533950481522 0.32391096474847092 12.180158513818821 42 43 45 0.60938311520442023 34 7274 33 6754 32 6317
5428 5.9017529642923217 1.2941579906329876 11.425621051718206 27 27 22 0.49164483899142147 34 7321 33 6762 25 7700 27 8061 26 7448 32 6322 15 8004
5429 2.8351020823641861 1.6176695029765522 12.731153597062146 26 26 26 1.1867870694199794 34 7285 33 6768 25 7706 27 8016 32 6336
5430 6.3270166678610034 2.408051426953834 11.351619513741216 98 92 84 0.84150137095500233 42 5497 33 6772 25 7708 27 8020 26 7455 32 6333 23 7986 16 7810 15 8014
5431 3.7532157266791075 3.045740054291763 11.412904607549981 21 23 41 1.7580331141907328 34 7253 33 6785 25 7666 27 7960 26 7410 32 6342 16 7659 15 7889
5432 4.8838411639488317 -0.56233339198900434 12.125735496161543 137 135 128 1.4139618014318618 34 7303 33 6796
5433 4.9937437922367289 -0.43803559683490906 12.077055230251622 33 49 32 1.1285990691938068 34 7306 33 6797 25 7769 26 7515
5434 2.9302616130989128 0.69851566067740123 12.254196412591901 24 25 22 0.7231347710606626 34 7316 33 6806 25 7749 32 6361
5435 2.9552874852828408 0.87452352597931848 12.312227264986975 9 9 9 0.80533873651542176 34 7319 33 6808 26 7497 32 6362
5436 6.0283644692565757 1.7976200670857418 11.377313164775723 47 37 27 0.49780842018884025 34 7325 33 6812 25 7752 27 8064 26 7450 32 6329
5437 6.9657842134377956 -0.596825867419015 11.200242390830832 187 184 178 1.198946196909642 34 7375 33 6830 32 6349
5438 6.9657842134377956 -0.596825867419015 11.200242390830832 187 184 178 1.198946196909642 34 7376 33 6831 32 6350
5439 7.5219528765289034 3.2216061251791239 11.463738374426221 161 150 137 1.0695797216412224 33 6853 25 7799 32 6408 26 7541 16 7918
5440 3.7652692514513175 2.9223308070378389 12.199617654298487 101 76 35 0.8376925625731817 34 7363 26 7559
5441 3.7794393572983385 2.8807773961033893 12.15270743083358 101 76 35 1.5314368304057824 33 6877 32 6438
5442 3.0163201687181838 2.867355485455636 13.140942021750432 129 121 118 1.3822086952072243 34 7391 33 6878 25 7815 26 7561 16 7917 15 8116
5443 4.7670096536683708 -1.0388390367864615 12.806895136895763 2 4 3 1.6760279350239087 34 7374 25 7821 43 6122
5444 6.4019637145342756 1.0546263156888804 11.407879612599785 121 131 124 1.2070538155771378 34 7413 33 6899 25 7840 26 7580 32 6439 15 8156
5445 4.2700232916335832 3.041283619521451 11.016620953233945 112 102 90 0.3612688660176509 35 5867 34 5722 47 4467 33 5194 35 6736 34 6535 47 5165 36 5736 43 5421 25 5973 27 6262 26 4929 23 6264 16 6018 15 5411
5446 5.7990727378622182 1.2876926294897932 11.451348519197671 43 46 37 0.99122593673110626 42 2118 36 2664 33 2642 40 2084 43 3494 47 2250 25 990
5447 4.1414143539436141 -0.026323010806522849 11.851041040991644 40 42 41 1.4859528137968434 35 7094 36 6367 34 6622 33 6385 42 5173 43 5724 47 5474 25 7021 27 7302 26 6788 32 5956 23 7281 16 7352
5448 3.1075806508654402 0.46692929297701979 12.152884569063033 10 10 8 0.38615517626087481 34 5236 43 4241 33 4819 35 5362 42 3844 36 4794 47 4052 25 5513 27 5702 23 5750 16 5531
5449 5.5023142529100086 -0.3290759942904804 11.763938523665866 21 16 15 1.731125499315556 35 4103 40 1792 42 2915 43 3210 33 3704 35 4102 40 2356 42 2914 36 3703 43 3209 47 3141 25 4269 27 2811 27 4486 23 4504 23 4505 16 4254
5450 5.5333756737239161 0.51189319637465946 11.511340338686814 50 60 50 1.0614234260864774 35 4268 42 3069 47 3279 33 2464 40 1204 36 646 43 2154 25 2847 27 4653 23 4697 16 2825 15 652
5451 6.3189354234130466 1.9216772092682317 11.252578984065652 118 100 76 0.84810474999869634 35 1309 40 740 42 1063 34 1251 47 1081 33 2881 40 2185 34 4543 26 1136 32 1193 23 1397
5452 6.2388901208276755 2.3521804732894536 11.388895073906014 85 74 65 1.4179337665639449 35 4744 42 3471 34 3282 43 3794 47 2663 33 1340 33 5089 42 4585 36 5660 43 5036 25 4845 26 1339 32 1343 16 1472 15 3751
5453 6.5643417151315369 2.183183175175448 11.205927358527084 85 66 46 0.29641889044197567 36 3025 34 3220 33 1292 35 1445 42 2471 25 1434
5454 5.7863074471799543 1.2517207303117295 11.444318714145338 43 47 38 0.36496125401059326 35 1001 36 2644 33 864 40 1403 43 2331 47 2234 27 3227 25 3013 32 832 23 3233 16 3045
5455 5.5905925692945386 -1.1030637300585151 12.366462626829287 8 7 6 1.8290189405107928 35 6761 40 3142 36 6318 34 6567 33 6314 35 7233 43 5428 25 7227 27 7724 26 6718 26 7203 32 5897 23 7686
5456 2.9892456743181937 0.56075780721432233 12.212572989155156 38 40 39 0.066418190567645599 34 670 33 659
5458 4.0145648094130317 3.3022939657795458 11.528595261164362 103 95 82 0.11322944196502507 35 3801 33 3457
5459 5.1195268321085958 -1.0802977514059457 12.501549311868715 237 229 227 1.0965378276439968 33 20 25 38 23 17
5460 4.8686818660893048 -1.1042855293326945 12.620148651143385 215 201 196 1.1499570145024132 34 21 25 41
5461 4.8686818660893048 -1.1042855293326945 12.620148651143385 215 201 196 1.1499570145024132 34 22 25 42
5462 5.0166168614279218 -0.86793449952930068 12.253293665069089 105 133 83 1.4399843976004378 33 2116 25 131 27 74 26 2524 32 2075
5463 5.4875064281935311 -0.74306921570736573 11.707328153118759 210 218 223 1.0024196519809396 33 128 25 142 27 2607 26 2516 32 139 23 2646 16 2427 15 2692
5464 5.7125035908241699 -0.69699238095205474 11.514909951327647 243 232 229 0.583194233849468 33 132 25 150
5465 5.5970480102442455 -0.69342052416670208 11.584707310979667 243 236 227 0.83765137133566325 33 145 25 163 27 2632 26 147 23 2672 16 190
5466 6.2095097680076261 -0.50160418187543376 11.223399383764541 147 142 126 1.0351355120642711 34 2370 25 218 23 2766
5467 6.8366579040778399 -0.37974425929044087 10.985241397838987 144 137 130 1.969938201472349 33 228 25 239 16 363 15 101
5468 3.7879910564372996 -0.81244053424834051 12.373832811648979 109 92 107 0.44164648867389344 34 175 25 260 27 189 16 2457 15 289
5469 3.7831279092703398 -0.81285710442729098 12.361497161494283 109 92 107 0.48364919996981409 34 176 25 261 27 188 26 315 23 106 15 288
5470 5.8038415603641518 -0.44716779139961049 11.488820417887869 39 33 33 0.30223551423752176 34 2412 25 299 27 350 26 202
5471 5.0299277571955123 -0.5488110769313741 12.04884779407557 127 129 118 1.4075483034609511 34 2398 25 311 26 2620 32 266
5473 5.7135604869324306 -0.35763862813460068 11.637173444018325 67 66 54 0.43660684267486338 33 2259 25 376 27 412 26 278 32 313 23 2802 16 403 15 262
5474 5.1132634590363208 -0.44513445105259342 11.837753328405451 119 120 109 0.24301106542107498 33 302 25 378
5475 5.7423315879951806 -0.31777085583747644 11.659639169943818 30 25 22 0.46080699488380328 33 358 25 409 27 2815 26 311 16 444
5476 5.6384427018646717 -0.31014006041942616 11.736832962457184 63 62 62 0.12306879760580194 33 386 25 435
5477 6.1764480626357434 -0.17918099413172894 11.577092912737891 83 78 70 0.23700185383850444 34 2544 25 476 23 2899
5478 2.5067010070425781 -0.44767116859150169 12.378430780299613 67 66 65 0.27142618378597017 33 475 25 603
5479 6.5035517931423028 0.21055887538490511 11.306538055634281 46 39 35 0.8187864899768853 33 512 25 604 26 472 32 497 16 632
5480 6.2666136086743851 0.1978301295108861 11.684446642489688 54 58 47 0.75248889655203188 33 530 25 612 27 621
5481 2.6811798591836715 -0.34893237880332767 11.985863457767127 81 87 81 0.43252948078084175 33 482 25 639 26 595 32 489
5482 5.5274547415939059 0.36834807706673872 11.525105860487942 31 27 25 0.80808492166919554 34 2670 25 670 27 663 32 563 16 676
5483 5.5274547415939059 0.36834807706673872 11.525105860487942 31 27 25 0.80808492166919554 34 2671 25 671 27 662 32 562 16 677
5484 7.2494173768602259 1.3713181970392665 11.366575753869609 91 94 82 0.42874157929830137 33 829 25 850 27 3213
5485 7.2494173768602259 1.3713181970392665 11.366575753869609 91 94 82 0.42874157929830137 33 830 25 851 27 3212
5486 7.205995224100965 1.3626088872170514 11.374005179659896 60 62 54 0.7524832180668235 34 945 25 853 27 3210
5487 7.1912645671395792 1.3853728684344688 11.342975402221835 70 51 42 0.81716167160787678 33 847 34 966 25 868 27 3237 26 674 15 704
5488 2.9613074067863279 0.66413311408462272 12.239943143675465 34 37 37 0.25401300597503756 34 694 25 908
5489 5.9264135797353044 1.2941317811734283 11.411178701906957 27 24 21 0.018554213237058581 34 939 25 965
5490 5.9079428138328591 1.294989930110791 11.426730051924554 27 23 20 0.047327743423375597 33 892 25 967
5491 5.6061739197092697 1.2468933395243216 11.497830494865577 26 24 23 0.18136420655934668 34 2867 25 978 23 3219
5493 7.1085829528372244 1.5436680967291996 11.244867653170997 135 113 91 0.87466788226556036 34 2972 25 999 27 1111 16 3103 15 750
5494 5.6142167559350904 1.3004974598185659 11.499104150627199 47 53 45 0.24039743986224171 34 957 25 1018 27 3271 32 885
5495 5.6164610291384021 1.3015304223111697 11.502476211971596 47 53 45 0.31535946451736147 34 958 25 1019 42 2115 40 2077 27 3272 32 884
5496 3.8027834268215885 1.0412502648446365 11.796005303968398 117 122 100 1.3004845549418762 33 895 25 1089 32 2603
5497 5.832865699916006 1.4509296383605097 11.391255135840582 126 123 104 0.63011183775998048 34 1031 25 1105 26 895
5498 3.0123069525086272 1.0171298894325416 12.355118726560555 37 42 37 0.29137957715640539 33 954 25 1158 32 1094
5499 6.9707980340958784 1.7589103896852096 11.145143598398244 80 74 58 0.5548804867313395 33 1085 25 1173 27 1254 16 3252 15 3395
5500 6.0165826203911328 1.6520075825345255 11.349150280343318 62 46 33 0.559652262176347 33 1096 25 1226 27 1230 16 3268 23 4996
5501 6.7122161403325071 1.8094516202878823 11.130136760702969 84 56 34 0.30425184585852644 34 1176 25 1242
5502 5.6832282329589088 1.6551852680401125 11.487567716438722 99 87 69 0.42978522348273585 34 3050 25 1252 27 1236 15 3565
5503 5.7820828001735558 1.7120180185834393 11.443937118591112 104 86 63 0.10226001989136281 33 1150 25 1274 27 1272
5504 5.7795584595277196 1.7111372456350002 11.43929073326365 104 86 63 0.2035351915068393 33 1151 25 1275 27 1271 26 1098
5505 6.1939985447758108 1.8093967698168145 11.296845883996255 110 88 63 0.3586692930983561 34 3111 25 1280 27 1313 32 1145 23 1334 16 1286
5506 6.1359644430120266 1.8348975404597163 11.307579327045389 116 93 65 0.31230527523958718 33 1176 25 1306 27 3503 26 1115
5507 6.4271135281170571 1.9780947525962278 11.220784582016107 107 64 35 0.73333334662025151 34 1272 25 1361 23 1430
5508 6.7331688475714033 2.0751500637854394 11.150545980711209 89 62 35 0.8954926251468438 33 1251 25 1384 27 1398 32 1223 16 1375 23 3630 15 1265
5509 6.0971974337926369 1.9877956079602481 11.356799325285692 96 76 50 0.44948660426597825 34 1278 25 1395 27 1378
5510 6.8492395477421653 2.1275279716307405 11.141969900098291 128 116 101 1.1934697834606265 34 1299 25 1396 16 3424 23 3654
5511 5.8685026362555845 1.9610412997110751 11.467526516597642 70 51 38 1.1759828729951425 33 1250 25 1401 27 3554 32 1248 16 1358 16 3393 15 1356
5512 5.0032056880528897 1.7070877906476831 10.818987519010028 41 33 27 0.07263433846627261 33 1189 34 1191 25 1412 26 1269
5513 6.1132745354628018 2.3086822901686856 11.417631260535792 91 78 54 0.26791785623312669 34 3262 25 1486 26 3363 32 1339 16 3487
5514 5.6760149833769011 2.3021826919904509 11.655120720567924 43 34 23 0.16238564818899739 33 2976 25 1502 27 3637 23 5147
5515 6.5629884987002072 2.7467769093817211 11.432379537434249 69 51 49 0.31343472846620518 33 3057 25 1571 32 1416
5516 2.8728896085515685 2.9159231816766744 13.220213712510198 88 78 69 0.30378620909745008 33 3267 25 1803 26 3748
5517 2.8969198767332469 2.9294357466303511 13.225727024668576 86 83 73 0.72274139527632431 33 1726 25 1807 26 3751 32 3192
5518 3.1639354906807839 3.0534547106109398 13.088516204736981 102 104 98 0.1307160573365394 33 3326 25 1863
5519 4.6915641614898949 3.0447978382741923 11.001235644062259 76 67 66 0.34525188268333279 34 3619 25 1890 27 2011 32 1666 16 1932
5520 4.7865092401211946 3.0962287246875762 11.048754598524331 115 111 98 0.52231900819542965 33 3257 25 1894 27 4034
5521 3.60071592667776 2.9663345576770541 11.753649825067574 57 47 39 0.22107861299878651 33 1744 25 1924 26 1869 32 1772
5522 3.5912853488617973 3.0087798661586032 11.901611332589223 94 93 82 0.40363459522143935 33 3311 25 1927 26 3735 34 1832 32 3139
5523 4.956988448345113 3.2641846968066646 11.1674956884011 123 107 65 0.30113584350264333 33 1799 25 1939 27 4086 23 5417 16 1983
5524 4.9637976945924418 3.281387968221984 11.173597101738642 94 76 47 0.22395843738120347 33 3353 25 1942 27 4094
5525 4.5970045305269087 3.1472020162387455 11.021060708872714 96 77 46 0.51005415399247378 33 1779 25 1944 27 4084 26 1793 16 2021
5526 3.7161802625088982 2.9857054153216347 11.425629509744255 55 43 37 0.11176685310403248 34 1858 25 1945
5527 4.2397416792164089 3.0549913385441476 11.022820036443312 110 104 87 0.56027627741717867 33 1769 25 1955 26 1828 16 2023
5528 4.2712966747326551 3.0779071318462283 11.031794309726489 118 112 98 0.82117407590843439 34 3651 25 1972 32 1736
5529 4.7245254251910245 3.2354853181554568 11.072787810248181 112 105 93 0.39568148103697154 33 1820 25 1976 27 4114 23 4094 16 2048 15 2035
5531 4.8383302373651835 3.3102729127803951 11.123309513999553 80 69 40 0.12860445429689679 33 3382 25 2002 32 1773
5532 5.6176300418387681 3.5661122988648035 11.149741212439444 222 204 190 0.27215764807194498 33 1930 25 2014 26 1767
5533 4.8103082757190796 3.323954835956374 11.1220584138356 81 66 37 0.24192382130486711 33 1873 25 2017 27 2167 16 2069
5534 3.8054378013369727 3.0998908281582782 11.360031249669008 101 91 66 0.12154423230957905 33 1830 25 2026 32 1834
5535 3.8291461368020014 3.1125033374625191 11.339598553024341 60 40 39 0.25401065700575659 33 1841 25 2031 26 1951
5537 4.8423388440585455 3.3795849757544958 11.145898359584496 78 58 33 0.23396391172661757 33 3422 25 2040 27 2204 23 4161
5538 4.8445814688252673 3.3832810103746636 11.15351295344391 78 58 33 0.30264287966141057 34 3777 25 2041 23 4160 27 2205
5539 3.6134742702454536 3.2127986057424347 11.924671482855661 96 89 76 0.10321530598939799 34 1978 25 2044
5540 3.6287529830111209 3.2249357733435819 11.911323584372308 104 97 78 0.17725767661056316 33 3435 25 2055 26 3830 32 3253
5541 3.6510381736386757 3.2252258592408594 11.780351809612027 76 59 33 0.51834877061248386 33 1932 25 2069 26 2030 32 3250
5542 4.8721468200737386 3.4449899939849882 11.177377903247502 80 56 26 0.28195021574957585 34 3816 25 2071 23 4190 16 2108
5543 4.0758730722730929 3.2118697862476031 11.16895965009669 77 58 26 0.11706870933501261 33 3411 25 2082
5544 4.6533888128504906 3.3711271787926784 11.103982561858412 101 79 36 0.38736215972487686 33 3442 25 2085 26 1903
5545 4.8535366382084337 3.4517697032843371 11.172262896924384 71 51 19 0.22901640236565385 34 4963 25 2091 27 4173 23 5460
5546 4.7081130237566597 3.4154544953104438 11.129058075948372 70 54 29 0.16520495225805698 34 3811 25 2101 27 2258 23 4186
5547 4.6419428697242235 3.4172539461699061 11.113288646402914 83 60 31 0.29878718686492511 33 3484 25 2123 26 1944 32 3211
5548 4.7056862801731594 3.4431985342504743 11.130735476713429 73 58 29 0.30729899104068931 34 2165 25 2124 27 2288 23 4197
5549 4.7230658107560686 3.4590738116979649 11.142211598715669 108 87 41 0.30660564510452842 33 3495 25 2126 27 4199 32 1895 23 4201 16 2154 15 2127
5550 4.6820390123629645 3.4626153224751679 11.129018999606142 101 83 41 0.30300871590917389 33 1977 25 2132 32 1904 16 2166
5551 4.6500769051391826 3.4862570890278688 11.134470701150709 69 50 17 0.39999851542399967 33 3501 25 2134 27 4208 26 3800 23 2339 16 2179 15 2161
5552 3.7570965905221776 3.3477514819845902 11.562942192244266 113 104 90 0.86321569288541689 33 4545 34 2087 25 2144 27 4144 23 2125
5553 3.8740794036169732 3.3406131437662978 11.392829181347759 55 45 59 0.10790961794228666 33 1986 25 2147 32 1956
5554 4.0430763917033934 3.3579226186925331 11.236871997566832 43 40 49 0.47061973415555264 34 2122 25 2150 27 2268 16 2172 15 4266
5555 3.7491171488623869 3.399551468804193 11.606945771042238 43 38 48 0.2710429540887882 34 2139 25 2178
5556 3.7969707078675579 3.3892475926303498 11.519667271619465 93 94 91 0.17945449635248201 34 2141 25 2180 26 2146
5557 5.0521388954215478 -1.2755326304843624 12.667645372660813 205 189 183 0.79176641762412536 33 2037 25 2305 32 1985
5558 5.4107098880184932 -1.0999491027477275 12.40238200603379 237 229 227 0.75531686978959367 33 4 25 2312 26 2393
5559 5.5516796249113805 -1.0116164029192476 12.336825655902574 239 226 225 2.0619833200077733 33 55 25 2343 26 2421
5560 5.6031140381045237 -0.74160497941637427 11.604229308800489 213 213 202 0.52766361169682596 33 118 25 2439 27 4354 32 122 23 4393 16 5274 15 4469
5562 6.659816087726159 -0.56363579889244098 11.107797062321445 126 70 70 0.86068244817383499 33 147 25 2451 26 109 34 2333 32 130
5563 4.9918754554992688 -0.81306426687150224 12.256214743164696 64 79 41 0.52991952503516171 33 152 25 2457 26 4083
5564 5.3402345285790007 -0.72443327565088123 11.804820832862148 233 227 224 1.3802449797398406 33 154 34 2306 25 2465 26 4077
5565 4.9710718932991274 -0.77437716794135147 12.244427324607177 61 73 38 0.18303643711868933 33 174 25 2475
5566 4.9970520621294483 -0.7557197296443855 12.187035538311981 59 70 36 0.75655736446960586 34 189 25 2480 26 2555 16 2414
5567 5.426920323318285 -0.67662880426542327 11.695119974859644 230 233 230 1.0915004693191785 34 201 25 2482 27 2653 32 170 23 2673 16 4156 15 4503
5568 6.3132794736462516 -0.50542140045758122 11.198674330643314 138 126 114 1.4178322888690478 34 2369 25 2508 32 172 35 363
5569 3.7665474366281448 -0.80448380070356651 12.35615284983259 251 255 247 0.28153981228844155 33 202 25 2536 26 2649 16 4159 15 4585
5570 3.7764634897043474 -0.78637026128390508 12.343711222283883 92 80 88 0.40306195750882584 33 2177 34 187 25 2540 26 2654 32 2150
5571 4.3617500551995345 -0.63509588458665134 11.904030289193569 236 250 249 0.25566887588708415 34 2356 25 2565 27 4414
5573 6.6666445596553467 -0.15308162625096877 10.964396916576955 157 148 145 0.69364639301608388 25 2643 27 2888 26 239 23 646
5574 6.1646783451104863 -0.22205850319386561 11.533878965620683 55 58 59 0.49836422433285354 33 2314 25 2648 26 308 32 2243 27 4527 23 2882 16 2631 15 2826
5575 5.450734574056832 -0.27759845284158208 11.766845667766209 68 74 68 0.44151979305073658 33 2322 25 2675 32 398 23 546
5576 4.4597927728840894 -0.42945483091206077 11.731182756336297 28 26 25 0.49795010874056328 33 2261 25 2680 16 2640
5577 5.9264204407333683 0.13084946534494515 11.629712400306499 83 23 21 0.41052733162215199 33 2401 25 2755 27 4592 26 2770
5578 6.5343711122616908 0.23547669663913515 11.336705794545649 77 70 61 0.86806636180391705 34 2632 25 2762 27 636 32 2324
5579 2.6094339960877608 -0.40109631466483181 12.020183993447645 159 127 141 0.55886085420620824 34 448 25 2769 27 4547 23 5618 16 6692 15 4768
5580 3.4607175718246741 -0.24980008967147713 11.855519832637189 70 73 79 0.31433169681368645 33 3774 25 2773
5581 6.558059794575847 0.26355749908960091 11.339976558626882 73 74 61 0.76995424101864085 34 4145 25 2778 27 640
5582 6.6014191259498975 0.30185956206708714 11.23801820201199 71 73 64 0.94394358482987417 34 2659 25 2793 26 4245 27 4625 32 2336 23 2990
5583 5.8902414855358947 0.45169840629413516 11.59986005994079 24 23 22 0.39468873916886887 34 2680 25 2825 26 577
5584 7.2635950544062977 0.6845724327372702 11.34094502804053 75 83 74 0.48790693949807251 34 2706 27 691
5585 5.7341519394863232 0.52739311193000016 11.544339310861798 59 67 53 0.42340949528639754 34 4175 25 2844 27 4652 23 4701 16 4433 15 3127
5586 5.9512869870799028 0.57460218684144304 11.587565529890849 59 67 56 0.67755130867185553 33 2475 25 2846 27 3027 26 611 16 2820 15 3117
5587 5.6701233025688911 0.87374655669946522 11.529145423346526 21 21 19 0.47085924383301742 33 649 25 2875 27 3078 26 658 23 4759 16 2878 15 3190
5588 5.7899331631047071 0.89922256961231095 11.536311632537734 23 24 22 0.055663925168376635 34 2763 25 2877
5589 5.4384831133378873 0.90938772013107072 11.555286277555888 26 26 21 0.4486426729022599 34 2770 25 2897 26 676 16 792
5590 4.5026477004445482 0.8045934996439813 11.352920396687205 229 234 193 0.23796647455021952 34 723 25 2933 27 3110 26 2972
5591 4.6885224086474002 0.88768652218950239 11.219803234115284 192 205 187 0.28002605378611728 34 760 25 2949 27 4728 26 762 16 4545 15 4912
5592 7.2536161955608733 1.4241087924021372 11.359440176471521 100 85 66 0.69354680256272205 34 2925 25 2957 27 4794
5593 4.0538783519428891 0.82057133129483728 11.697344747011281 76 105 79 1.6928262371901883 33 704 25 2966 26 4464
509 5.5109634341697209 0.37062631628080173 11.510112661940001 30 29 25 0.34584573435204358 35 685 42 513 36 612
5596 5.8663881183913631 1.2631012324090987 11.427516611834093 21 20 17 0.33713304903610658 33 2625 25 3011 23 4893 16 3043 15 3303
513 5.8007345822109908 0.45439435198576422 11.563308292300007 49 59 51 0.37495236584096375 40 418 42 545 43 632
5600 3.8124909589761198 0.99634749547090529 11.457611130314175 77 108 77 1.0123756829415405 33 828 25 3103 26 4555
514 5.7782835902783809 0.46643749910968263 11.544695291153781 28 25 23 0.65924193768098061 40 1205 42 546 36 2448 43 634 35 713
5601 5.6815867103745825 1.4594626185762749 11.471771810966031 127 131 118 0.35631821330943864 33 4067 25 3137 16 4662
515 5.7766942146584643 0.46699228928600078 11.538581534904479 28 25 23 0.72115120417346723 35 714 42 547 36 2449
5602 6.0813237454937958 1.6683149512333098 11.318447141176408 78 53 34 0.39128141490775076 33 2790 25 3227 27 3429 23 3405 16 3281
5603 6.926719445128203 1.8856478459552581 11.123889760414777 119 114 89 0.30144330289982008 33 2838 25 3257 26 3150 32 2720 16 4773
517 5.7694241623988685 0.50088194248140805 11.538300842535458 51 63 53 1.0188880480214944 40 424 42 557 36 2452 43 639
5604 6.3470141595623168 1.7888010559557128 11.25011757106113 108 82 59 0.48774862075883429 33 4155 34 3094 25 3261 26 4567 32 3850
518 3.2922794621833922 0.83495282608367349 12.230823377783757 7 7 8 0.35078262838703445 35 783 42 599
5605 6.8015918835272995 1.9241686723013018 11.108316959370676 125 105 87 0.66851230136610451 33 2861 25 3283 27 1350 26 3193 23 5105 16 3362 15 3532
519 4.8025567410838415 0.84985617225073107 11.351622497964843 94 93 133 0.13222768198251794 35 820 42 622 36 767 34 746
5606 6.2021317234615543 1.832204998795161 11.29679389624107 69 47 34 0.45987931971514184 33 2857 25 3287 32 1165 23 3496 16 3351 15 1205
520 6.2336210809856487 0.68868119752923507 11.587206158089264 25 24 20 0.16929649982985745 35 754 42 642 36 742 43 706 47 626
5607 6.1279334477003591 1.8350756912829385 11.32109598372743 79 59 44 0.42304118407235286 33 1182 34 1216 25 3291 27 1330
521 4.8858092538991427 0.8858680874492002 11.341973505359984 75 75 102 0.068516822039674477 35 848 42 646 36 2516
5608 5.7804308100783217 1.8121576792399625 11.506613446309256 105 85 58 0.069453902177768936 34 3118 25 3304 26 3273
522 6.1929370100055916 0.70166846107967606 11.595284967528478 27 24 22 0.8491597022799674 35 2775 42 647 36 2493 34 668 43 712 47 635 33 589 25 712 27 3040 23 793 16 702
5609 6.826019745574694 2.0626337177014866 11.126115471402452 98 68 47 0.55259301692139617 34 4570 25 3331 32 1207 16 3403 15 3592
524 3.0125685797402126 1.0080308091756083 12.344216968142522 29 32 29 0.45304841189263917 35 894 42 660 47 763
5611 4.9888305971572215 1.6582992259497686 10.805085747267869 24 21 18 0.57780603940531283 33 2845 34 3082 25 3349 27 3529 26 3316 16 3443 15 3740
525 3.0122616513644309 1.007160528401513 12.336848947275135 29 32 29 0.31501498481897938 35 893 42 661
5612 3.2490499887892472 2.5541841159575243 12.907638159735003 47 45 37 0.40566713168533386 33 1537 25 3585 26 1643 32 1613
526 6.077723923842818 0.78736020803088769 11.556272488755271 21 19 16 0.21251810272233837 35 799 42 665 43 758
5613 4.0828455203881662 2.581797532824528 11.685104670277726 155 168 142 0.48087188624411537 33 3127 25 3594
528 3.0644895608786409 1.0311715867788982 12.343683374370556 24 31 32 0.65360477032450659 35 908 42 674 43 2255 33 956 27 984 26 1221
5615 5.9600307447372378 3.4235725654245641 11.442316469110057 180 165 146 0.12924995535944894 34 4910 25 3708
529 5.9294289461663814 0.83944513503376428 11.554531173125007 21 21 16 0.27689866749654785 35 837 42 679 36 826 43 776
5616 3.1414908776828474 3.0173337096221857 13.080909113699425 110 109 99 0.58089057017407197 33 3309 25 3722 27 3841 26 3752 32 3207 23 3738 16 1695 15 1884
530 4.9954171585584319 1.0473911912662488 11.201362635955611 121 110 102 0.48624925179757533 40 1320 42 707 36 2583 35 2882 34 867 25 936
5617 3.1881852258864183 3.0507863021623018 13.092208109446775 108 103 93 0.19240593931354247 33 4431 25 3736 26 3766 32 4206
531 5.6575090956800498 0.95897363391775603 11.495180993599543 63 68 61 0.80780266906455089 35 904 42 721 34 783 47 736 25 768 27 3130 26 672 32 670 23 3146 16 2900 15 715
5618 3.2416380876699371 3.0790743851469973 13.122263318678375 66 59 54 0.76691495663739506 33 4439 25 3742 27 3856 32 4215
532 4.8439083521841466 1.1321863185480459 10.969426578502175 76 64 66 0.39989239116902131 35 968 42 723 36 2604 43 834
5619 4.7498397309672864 3.0754075870694231 11.027055865818753 82 66 62 0.46348305873143425 33 4377 25 3776 27 5288 23 5375 16 3834 15 1913
533 4.9746808513739742 1.093702889296541 11.155525833198203 173 169 154 0.13560157191667238 40 563 42 725
5620 2.9260128730411563 3.0922489847190389 13.270228047662163 74 69 73 1.0619714300652408 33 3373 25 3797 26 3808 16 1722
534 4.8138292282491539 1.1407990007471249 10.971185752482391 83 115 94 1.5662122151211026 40 1986 42 726 36 4042 34 894 43 2269 27 3276 16 4677
5621 4.7349721336886557 3.1045409177929622 11.033615140431829 112 108 94 0.35165615111111964 33 4389 25 3804 26 1702 32 3063 16 1960 23 4032
535 5.7920044624788352 0.95661824113592187 11.515029544049511 51 53 51 0.44786593415598347 40 1348 42 729 36 874
5622 4.7369631771011296 3.1046505335928973 11.035949876361501 112 108 94 0.16772288757596721 33 4390 25 3805 26 1703 32 3062
536 5.9028669307042216 0.97720853663215512 11.530632201393745 40 40 39 1.1549024378346728 35 926 42 738 36 882 33 681 25 751 27 875 16 780 23 1000
5623 2.8985170920222574 3.131665687636298 13.317742820370327 118 111 104 0.24844809257045739 33 3386 25 3812 16 1734
537 6.1126327231673452 0.96065233561029872 11.54302048466095 60 66 57 0.66929658402410164 35 918 42 744 36 2586 43 837 47 745 33 670 34 2779 25 2878 27 826 23 991 16 2881 15 682
5624 2.6791583893005879 3.1480983466959813 13.630707331923798 76 66 62 0.31555027373806249 33 4489 25 3815 27 1760 26 3866 15 4114
538 6.1127158681437939 0.96093825833547242 11.543803072897621 60 66 57 0.67492198205248521 35 919 42 745 36 2587 34 2780 47 746 33 671 27 827 23 992 16 2880 15 683
5625 4.7719383898816741 3.1386345617970313 11.054076070070696 101 106 95 0.19170573088603274 33 3279 25 3817 27 4057
539 5.0945200311370913 1.130573921966785 11.225109655525241 66 82 68 0.018149760045592961 40 2004 42 753
5626 2.9105914977762373 3.1423672132357101 13.303334300224641 53 49 45 0.60788483129064386 33 1877 25 3821 16 1738
540 5.2716828520588495 1.3253381117385126 11.297979851895709 64 76 60 0.30273100234054967 40 2053 42 803 36 2660
5627 3.6043033044044348 3.0261118621945009 11.769109118684847 90 89 80 0.29433335244746806 33 3324 25 3842 26 3758 32 4162
541 5.8770191447410376 1.2528082643041125 11.42513093776188 57 68 62 0.46515546535241609 40 1411 42 805 36 2656 35 2945 43 895 47 825
5628 3.6069099068396442 3.0272896286984623 11.772634810298767 90 89 80 0.2992593088441472 33 3325 34 3612 25 3843 26 3757 32 4163
5629 4.7018487279024317 3.1778928885175777 11.056396018191053 73 66 62 0.021204982921414189 33 4425 25 3845
5630 5.3788074693733492 3.5096172005108808 11.392977589477892 151 121 103 0.082533611990424763 33 3417 25 3871 26 3648
5631 3.9752313544598663 3.0692401062949228 11.183393720778907 110 108 95 0.81847860612411305 34 3658 25 3885 26 3727
5632 3.9752313544598663 3.0692401062949228 11.183393720778907 110 108 95 0.81847860612411305 34 3657 25 3886 26 3728
5633 6.0732967487503515 3.6102764611024485 10.836465799779434 201 161 120 0.26549564244554724 33 1915 25 3889 27 2316 26 4886 16 5173 15 5353
5634 3.6312531518070399 3.1933053227070061 11.894524702398478 108 102 87 0.58240307562786153 33 4495 25 3897 32 4898
5635 4.8174688839612996 3.376950340643448 11.142301055250387 116 91 48 0.291319099640859 33 3423 34 4947 25 3910 32 1823 23 5443
5636 6.1029013041754725 3.6533158617207806 10.722140955008857 244 221 187 0.12690703146361337 33 3460 25 3913 26 1724
5637 4.8473970324170814 3.4119571155162696 11.16318569556147 67 60 34 0.063167970899757633 33 3439 25 3927
5638 4.7394997247347384 3.3701879976345115 11.113259443880828 78 58 27 0.52487559382323934 33 4502 34 3782 25 3930 26 1879 32 3165
5639 3.6284549295049868 3.2279533047160429 11.847793986986231 97 90 80 0.166086461686659 34 1993 25 3931 27 2063
5640 3.9034669524650156 3.1671308369514817 11.296657090247816 110 100 89 0.0023941403801430827 33 3396 25 3932
5641 3.8971230060014581 3.162674144387863 11.286970137466044 110 100 89 0.48830583416101669 33 3397 25 3933 23 5364
5642 3.6426690923122571 3.2334049978966077 11.79801223256217 105 99 83 0.23966981792864706 34 3702 25 3935 26 3838 32 4231
5643 6.0157125377964755 3.6856453038795811 10.652083480237241 244 223 190 0.32335258006270629 33 1971 25 3946 16 3998
5644 3.9229487965448242 3.2371258925829727 11.293172880845491 111 106 94 0.12357420820522319 33 4506 25 3949 26 5016
5645 3.6977080845743284 3.3907329830912478 11.733359173221091 47 43 59 0.12439573074647022 34 3806 25 3975 26 3899
5646 5.0506574961663562 -1.0989685249972676 12.510135182481083 213 186 172 0.4182616803341353 33 3540 25 4057 27 4270 32 2011 23 4262
5647 6.2581605409858394 -0.91185215648929485 11.836315579999789 224 220 212 0.43559542902750426 34 3852 25 4058
5648 5.3513033952433915 -1.0439067720865989 12.327248267564533 255 255 252 1.0301687135755626 33 2052 34 2194 25 4059
5649 5.0063398056194233 -1.0537786360422001 12.502774152948085 215 197 198 1.3012764908663415 33 2071 25 4075 27 4285 32 2033
5650 5.0063398056194233 -1.0537786360422001 12.502774152948085 215 197 198 1.3012764908663415 33 2072 25 4076 27 4286 32 2034
5651 4.9885128341065892 -1.0115920686715958 12.484947273909771 221 219 214 1.0554233421998784 33 3549 25 4079 26 4030 23 5501
5652 6.0067634521601967 -0.72668823399394378 11.380267373080956 211 207 200 1.3861102932490914 33 2098 25 4111 26 4023
5653 5.0214695062404342 -0.83600293069577913 12.184267128376289 84 105 58 0.66201066175808898 34 2275 25 4126 26 4074 32 2085
5654 4.9902226650569892 -0.80659197329385446 12.221374018657274 65 81 37 0.92592372019961688 33 3583 25 4139 27 4341 26 4084 34 2291 32 3349 23 4336 16 4108 15 4487
5655 6.3166767891854692 -0.55570818586793058 11.153453838085772 146 135 124 0.95597430110367076 33 3588 25 4151 27 5499 25 5268 26 4055 32 3334
5656 6.6160346679801059 -0.50457345414286625 11.095492466343018 169 153 147 0.84694477572590177 33 3596 25 4154 32 2080
5657 6.3738576804352833 -0.48897914874904203 11.127426767007993 138 121 111 0.87820903627651981 33 4615 25 4166 27 5526 26 2522 32 2092
5658 5.2291628520861133 -0.65258094005136635 11.818963133247738 237 231 229 0.70543335985026523 34 2342 25 4172 27 2675 15 2740
5659 5.1764573141340415 -0.62644498599054221 11.87043091059655 213 212 208 0.62176088732884993 34 2358 25 4180 27 2686
5660 6.7359865474514642 -0.36771830003402262 11.04783328157859 138 90 88 0.79324596249324997 33 2203 25 4186 26 4079 32 2119
5661 6.7801945054064872 -0.34333176425685802 11.040576360523803 170 159 155 1.1002829973887198 34 3973 25 4192 26 2545
5662 6.23848850124946 -0.30827409756537671 11.405558768353057 113 105 98 1.1996717794730989 33 3677 25 4224 32 3392 16 424
5663 6.262591496314414 -0.29304226267449063 11.416926695560015 43 42 35 0.18781661883386866 33 3687 25 4236 32 3404
5664 5.035338387536278 -0.26176317420360379 12.065257609266199 88 79 69 0.59417339695248428 33 3753 25 4311 27 4531 32 3484 16 4287 15 4646
5665 5.8240723767808138 0.12610299452442936 11.606877319815968 86 23 22 0.34641219057595846 33 2400 25 4357 32 515
5666 6.5431764588674515 0.24777034244535709 11.273901860646502 73 72 65 1.8948166220397937 34 4142 25 4361 27 4618 26 4237 16 2775 15 2992
5667 6.5431764588674515 0.24777034244535709 11.273901860646502 73 72 65 1.8948166220397937 34 4141 25 4362 27 4617 26 4238 16 2776 15 2993
5668 5.8259576486505678 0.17050955415563418 11.59473785984688 87 23 21 0.44343986842798572 34 4131 25 4369 26 2786 32 537
5669 5.8252426338558747 0.16873822133616814 11.59700762469231 87 23 21 0.93952464086495779 34 4130 25 4370 26 2787 32 538 16 4384
5670 5.6467785649774891 0.15775768826436712 11.558264525503079 91 26 22 0.22885793831989321 33 2420 25 4379 26 2796
5672 6.0845501486723546 0.80048901180493282 11.558704584312139 44 58 47 0.49619149328244372 33 3896 25 4448 26 4349 32 2405 16 4458
5673 5.6184920116015435 0.85696194783328528 11.529116729118524 29 25 23 0.63994202608187956 33 3911 25 4454 27 4681 26 4373 32 2414 23 4755 16 4471 15 4809
5674 5.8900810108203014 0.93493261682469841 11.538142099593895 41 47 40 0.58474333905429587 33 2519 25 4462 27 4696 26 659 32 631 16 2887 15 3184
5675 3.0853419653499317 0.46534326239721907 12.166541641640295 49 46 47 0.19816329917382816 33 3898 25 4470
5676 4.6091744897993632 0.74647056672712164 11.456553342011667 96 137 102 1.0688270813777345 34 687 25 4476 27 4680
5677 4.5923407590442276 0.78230038895640452 11.40945521915517 222 234 214 0.59974855121211768 33 652 25 4484 16 4505 15 4873
5678 4.4261079645685628 0.88240098451289095 11.142463593838254 239 236 212 0.15226850431225597 33 2552 25 4528 26 4444 16 5633
5679 4.3708272468093021 0.89964700732395686 11.113767460345352 227 233 205 0.35496526936573436 33 711 25 4535 26 3033
5680 4.9823453724640796 1.0625615327912534 11.186872306220351 159 157 143 0.45082298654430081 34 4283 25 4542 27 5831 23 6563 16 6342 15 5909
5681 4.3968950959329121 0.9354700374543623 11.016972241726098 219 232 207 0.22434251433432184 34 2797 25 4547 27 4749 16 5672 15 5951
5683 3.8505606071858502 0.9693443770939395 11.480526197466734 185 188 175 0.11545421032433839 33 2595 25 4586 27 3198 15 6011
5684 3.8533624509794153 0.9673369714648079 11.426512173260646 190 197 169 0.43199518776393048 33 2593 25 4588 27 4758
5685 7.0924156463724373 1.6464619950360939 11.221860833765058 130 108 83 0.41613351099017726 33 4072 25 4597 16 3152 27 4864
5686 6.7761285792320267 1.6157067869167332 11.177093350375122 119 95 71 0.38821131728131475 33 4075 25 4608 27 4867 23 5973
5687 5.760802949898614 1.4760266259246002 11.44459768629309 44 30 25 0.75513139021225328 34 4393 25 4621 27 5904 26 3114 16 5688
5688 6.3801103725510098 1.6791971153507255 11.20414507899037 54 37 22 0.59285810288347007 33 4115 25 4658 27 4908 26 3124
5689 6.3792651260349329 1.6778600482595498 11.206147562394717 54 37 22 0.72649960245380441 33 4116 25 4659 27 4907 23 5016 16 4719
5690 5.7882716502952301 1.5869592909497359 11.46415784778711 71 55 41 0.48718329107554448 33 4111 25 4663 26 3170 16 4701
5691 3.0558939465611887 1.0973405326764076 12.375227450251513 20 18 18 0.2826159757423522 33 4066 25 4667 32 3856
5692 5.8977856368716131 1.6484374524035219 11.386035937341946 111 89 66 0.31321692230237091 33 4128 34 5446 25 4680 27 4899 26 4557 32 3831 23 4991 16 4724
5693 6.4574743021334404 1.7666662547980188 11.171934008944232 62 50 35 0.59719339930988435 33 4144 25 4691 27 4944 26 4541
5694 6.7423876768023758 1.8549695739528607 11.134242402941736 57 44 27 0.68851657222804652 34 4514 25 4701 27 4967
5695 6.8266452683578533 1.8827577357049476 11.135971090531294 75 56 38 0.59363173048901252 33 4167 25 4707 26 4544 27 4978 32 2726 15 4985
5696 6.5483038432722669 1.8494904316103382 11.197569838429397 58 45 35 0.73279775635931821 33 4169 25 4713 26 4558 32 4661
5697 5.6369877330258511 1.8328951615047602 11.573104271341705 110 98 81 0.13039105810203327 34 4520 25 4750 27 4970 16 4807 15 5080
5698 4.9686756034180073 1.6302562883500904 10.78587133552754 133 125 101 0.50489388827555881 33 5011 25 4765 27 4988 26 4678 32 4668
5699 5.7995260646359128 1.9226364242922023 11.505713488950967 96 79 62 0.3307812096533842 33 4201 25 4769 27 5004
5700 4.9868774181817104 1.6781830385937397 10.799690294620754 143 130 105 0.62596805164437264 34 4491 25 4778 27 5007 26 4693 16 4865
5701 6.4322516825875988 2.069855953629983 11.226468638333388 124 109 97 0.47855988643145769 34 4577 25 4779 16 4849
5702 5.0034938467557977 1.7257324619036722 10.808823857244544 139 131 106 0.37071246760925614 33 4184 25 4792 26 4702 32 4681
5703 8.3402098104119737 2.9793836037107009 11.759877984944339 195 183 171 0.85607481799132812 33 5107 25 4852 26 6168
5704 6.8794306467783581 2.6113348916088737 11.381359132637453 103 93 79 0.79846734495315463 33 2999 34 5616 25 4858 32 1369 23 6163 16 4915 15 3754
5705 6.0151719318228194 2.6213813122751124 11.676010010318944 62 41 35 0.42512386478647446 33 5111 25 4890 27 5128 26 4769 32 4754
5706 4.7292458520362253 2.8185373084299221 11.26248176713165 158 137 122 1.9457473841990554 33 3139 25 4960 23 3852
5707 5.7607904991783023 3.339175043950882 11.724894575264445 190 174 155 0.2401064319199413 33 3259 25 4986 26 4855
5709 2.7070491714862177 3.0240865952815175 13.684991385001741 129 140 135 0.39138390621014019 33 4443 25 5019 27 3817 26 5760
5710 3.7654490660441864 3.2066651176051884 13.003070508539126 96 93 80 0.41088312166818142 34 3604 25 5034 27 5219 26 4963
5711 2.790486147720296 3.0729836843942695 13.575187653253483 118 113 117 1.0783545779646646 33 3361 34 3548 25 5039 26 3816 32 3276 26 5764
5712 3.6671138509348284 3.2068203525926386 13.054557041522358 119 113 104 0.37448684556490536 33 3362 25 5040 26 4973 32 4219
5713 2.7719611731947267 3.0748497260398753 13.59715822140276 61 59 62 0.76319566667153838 33 4459 25 5041 27 5182 26 5766 23 5183 15 5359
5714 4.3486349445902617 2.9514848573369541 10.963880749305497 133 119 100 0.39880627030679694 33 5174 25 5052 27 5277 26 4893 16 5123 15 5380
5715 3.3304345686465715 3.234903633959088 13.054682915280932 174 161 147 0.56562025478551448 34 3630 25 5072
5716 4.7367866138030177 3.1566998727942899 11.040883724310135 82 79 65 0.66260810422151073 33 5204 25 5075
5717 4.006042779811362 3.0126359580152049 11.098256624024573 120 110 92 0.8521909757867534 33 4412 25 5085
5718 4.8362966482917846 3.2896538691812562 11.115989393365346 123 101 57 0.28542404344476491 33 4468 25 5094
