# 3D point list with one line of data per point:
#   POINT3D_ID, X, Y, Z, R, G, B, ERROR, TRACK[] as (IMAGE_ID, POINT2D_IDX)
# Number of points: 339, mean track length: 4.9010509440684
2377 -3.4909900998872039 1.5016435220222912 6.0752213625203915 110 89 30 0.17109880348654494 45 13817 44 17016 43 15420 42 14057 41 12618 40 11031
12649 -1.192690543330023 3.3138328371663115 5.3354622130955747 61 54 59 0.22984782082974764 21 10198 19 7987 20 7781
2376 -3.514879730275025 1.5125778742169922 5.9356921753270289 110 85 35 0.72501064423623285 45 14914 44 17014 43 16001 42 14055 41 12617 40 11317
12648 -1.1985547465500803 3.2013193629930674 5.2514500342009089 112 100 104 0.73737515466530723 21 10174 19 7968 20 8517
2375 -3.4910104520820142 1.4603862153110869 6.0676108983192591 119 89 30 0.21446081948641679 45 14906 44 17012 43 15413 42 13522 41 12186 40 11028
12647 -1.1673267380446131 3.1614307609351182 5.4697034136723355 224 216 217 0.30507645468798122 21 9378 19 7956 20 7749
2374 -3.4972303528138253 1.1630822541690422 6.2255951047793792 81 71 42 0.21780874721410076 45 13782 44 16995 43 15389 42 12412
12645 -1.4822074695524676 2.4426572221107903 4.758625853542628 104 102 102 0.1728158707499664 21 8937 19 7649 20 4683
2372 -3.3195444325826768 4.1563928456302843 4.1388485588019028 79 25 18 0.32514792948649324 45 14833 44 16911 35 7887 36 8063
12644 -1.5254122060309974 2.3864887172696867 4.8098407247997939 70 65 67 0.19958085205486542 18 8912 21 8826 19 7566
2371 -3.241237910140808 4.0512605224428109 4.5702709350201767 91 29 17 0.47419111438890127 45 14759 44 16843 43 15876 42 13910 35 7061 36 8030 34 7520 37 8165 33 6812 24 10270 16 11201 23 10336 9 10948 15 10970 8 10891 17 11126 18 10064 39 8324
12643 -3.3202931026484284 4.101558190767757 4.1671727570042458 178 174 164 0.28035407520213718 18 10092 22 9641 19 7559
2370 -3.3369025672659451 3.8293104606557322 4.1399499128486585 58 53 53 0.24644236195109517 45 13320 44 16749 43 15095
12642 -3.3197956786522909 4.1023165095752381 4.2079810391459453 180 182 171 0.28428113374971131 21 9277 19 7554
2369 -3.3525110421423863 3.4734232877891054 3.9416497901237526 138 49 29 0.26279853959772548 45 13062 44 16598
12641 -3.278991227804096 4.072245327009016 4.4524807979584873 166 170 166 0.023868299604132295 18 9109 19 7547
2368 -2.9551404358784858 3.4245770674570211 4.9963141915991107 103 103 95 0.23562045583456118 45 14390 44 16552 43 13536 42 11765 35 5149 36 5362 34 4842
12640 -1.5549773207501931 2.3316319596093456 4.8650244507323412 66 67 69 0.40127876411015245 21 5237 19 7462 20 7224
2465 -3.2980399864059735 3.1694647520409118 4.2071280067791674 113 32 16 2.1408231967218496 45 16665 44 18890 43 17229 35 9201 36 9276
12639 -1.6244930751788622 2.2004397084696286 4.9678096906983873 71 73 68 0.52398075229648733 21 4864 19 7138 20 6912
2366 -3.3491117719621055 3.3020337149470844 4.1309246249518639 63 55 51 0.19780080390668223 45 12867 44 16487 43 14826
12638 -1.5723074070603731 2.1720856037912033 5.2536745238666978 127 129 133 0.31801571158670777 18 8318 21 8346 19 7125
2365 -1.6779242619039849 2.9743701755140561 4.5557314819513044 65 21 13 0.25527715157705616 45 14244 44 16451 43 14807
12637 -1.5821650376432046 2.1673525664571915 5.2231145114301709 71 75 79 0.10926679012111662 18 8309 19 7110 20 6925
2364 -1.7595131139148397 2.9757231962262689 4.5702296733719132 62 21 11 0.24617858258264219 46 12406 44 16447 43 14803 30 13727 32 6233 29 12463 31 6369
12636 -1.5785209780520497 2.1322522247459927 5.2927197732864473 136 145 150 0.080785142000744103 18 8205 21 8235 19 7043
2363 -3.3429372316957857 3.0703394986049601 4.1194905991253679 104 35 23 0.55030711764043838 45 14238 44 16422 43 15647 42 12900 35 7581 36 7793 41 11607 34 6335 33 7413
12635 -2.3798598321186191 2.8435951373930659 5.1573614581549077 105 109 106 0.90253062797839823 18 8511 19 7032
2362 -2.0932751178828091 2.9439202108866951 4.6474136550560265 205 213 203 0.10293402293211838 45 12617 44 16421 43 13279
12634 -1.6102700959727627 2.1375498014883059 5.2239048149042517 72 67 76 0.1462080094876729 18 8210 19 7018 20 6828
2361 -3.2175447561437402 2.9675030878668118 4.791784157479305 55 23 20 0.44042868578642641 45 14186 46 12370 44 16378 43 14714 35 6584 36 6847 32 6150 26 8384
2459 -1.2723964464344155 2.7162113463978104 4.7607343236662309 94 33 24 1.3654072488282796 45 16529 44 18767 43 17134 42 15132 35 9092 36 9180 34 8791 37 9075
12633 -1.6128704844400668 2.1127462882555035 5.2796531423470778 82 76 83 0.16314256558379123 21 8128 19 6940 20 6777
2360 -3.2164226416740682 2.9546489264767342 4.7884476142331378 55 22 15 0.29394707451522306 45 14176 44 16374 35 6577
2458 -1.8393962376108985 2.7556876524932488 4.568833459195651 87 36 24 0.15084421077895452 45 16530 44 18766 43 17086
12632 -1.6281912744697971 2.0849744236843519 5.3114669990642875 131 140 139 0.26404493004909851 21 8008 19 6839 20 6690
2457 -3.4748093734679797 2.5776261746910256 4.2809694048069202 35 36 35 1.1012766167039361 45 16525 44 18760 43 17075 35 9032 36 9167 41 13443 34 8773 33 8853 25 11819 24 11562 16 12556 23 11513 15 12136 9 12142 17 12321 10 10637 11 9057 8 12106 2 14493 3 9851 22 11476 1 14372 6 9416 5 10461
12631 -1.7032491263446674 2.0392861735771417 5.1952744175464014 127 127 131 0.3567575204231912 18 7864 19 6645 20 6478
2358 -3.2995231350345664 2.9097806035992071 4.4167749120936541 111 43 31 0.68416233881273802 45 15115 44 16350 43 14667 42 13662 35 6567 36 7753 34 6209 40 10097 25 9040 33 6203 38 3710
12630 -1.7454780879916039 1.9812763049421778 5.2235455993333035 78 79 81 0.18119806551721571 18 3721 21 7577 19 6441
2357 -1.2999735245326429 2.7089103646368313 4.5046333060875607 137 123 121 1.1838695885919039 45 12461 44 16336 43 14701 42 12869 35 6718 36 7075 41 11618 34 4648 37 7295 40 10207 38 6902 21 5990 39 7684 20 4887
12628 -1.8520714740401698 1.9713462934631103 4.9174016371399736 135 139 143 0.16102355834523288 21 7392 19 6272 20 6040
2355 -1.2708156307676786 2.6707329112876996 4.8050896235754808 100 92 87 0.56736620201982368 45 12426 44 16321 43 13084
2453 -3.5345140154326335 1.2878100511259079 5.9045423875425129 58 21 13 0.477060394625827 44 18661 43 16984 42 15086
12627 -1.8070572845882302 1.9085722969793317 5.234400429662581 130 137 135 0.1958252137718679 21 7250 19 6199 20 5990
2354 -1.2467617125034935 2.6454211863483641 4.8058336718741375 46 19 15 0.55208511413010153 45 15063 44 16310 42 13680 34 7202 33 7276 25 10224 26 9383 24 9982 16 10993 23 10684 15 10702 17 11599 10 7815 14 8399 11 2780 8 10951 2 13180 3 8787 21 10078
12626 -3.3796915748987102 3.064286320493927 3.9824949519088215 116 106 99 0.4737969397232738 18 8218 21 8290 19 6166
2353 -3.3712798435540834 2.833402294075261 3.836296664517302 133 37 20 0.64615585781520168 46 6652 44 16301 41 11478 37 3988
12625 -1.783591913364877 1.8457859722048673 5.4547956812115768 121 123 127 0.5531765439795886 21 3385 22 2525 19 6129
2352 -3.2281168985006197 2.8060166779937901 4.7721581029865003 46 17 14 0.11353630311440067 46 12274 44 16298
12624 -1.8144505334795196 1.8427970534328448 5.4760821840743938 97 94 96 0.93030955454710274 18 7250 19 6109 20 5951
2351 -4.0983812562435471 2.8854784758217948 3.9184355710016177 61 17 11 0.3250266596428924 45 14111 44 16295 43 12914
12623 -3.0543907469913609 2.4290273915403322 4.7818951130060974 115 116 117 0.14921282970427319 21 7155 19 5873 20 5816
12622 -2.914878609836618 2.3633288607206056 5.4093516860228954 110 115 110 0.15119223882763222 21 7127 19 5866
12621 -3.4870718206783877 2.6530361285580559 3.9476318714863696 96 97 98 0.7631206320660443 21 3632 19 5824 20 5762
12620 -3.0582735791732181 2.3541804606152028 4.9948934460850891 116 120 119 0.16792693764497177 22 7650 19 5740
2347 -2.9344123534421498 2.5987418438379883 4.8704285625998587 32 11 13 1.7499450638361169 46 10488 36 3972 45 14034
12619 -3.5093596577702164 2.5562380502992892 4.2091254709142563 109 110 111 0.35055983474087865 3 7475 19 5636 7 6059
2346 -3.5549752135065291 2.5523733618186704 4.0359447191035862 204 210 215 1.2792950046267777 45 13979 44 16183 43 14516 35 7439 34 7102 39 7118
12618 -3.132756507199244 2.2960752158885094 4.9024821963577736 86 89 95 0.09665410320508401 3 6203 19 5589 5 9448
2345 -1.2564589297627278 2.1002693084609918 4.8756666699633717 33 30 31 0.43262822731241612 45 13906 44 16110 43 15475 41 12241
2443 -3.701485068770741 2.2331430035293209 4.4488042099401479 186 182 183 0.87852278993757915 45 15946 44 18491 43 16932 42 14899 41 13335 40 11683
12617 -1.2115477228156548 3.329706857889831 5.2331981207259153 84 73 87 0.17393961046257678 21 6198 19 4928 20 7778
12616 -1.3051832964775154 2.6979997135676808 4.4952136699609051 71 38 32 0.29768991334863548 21 9263 19 4829 20 4884
12615 -1.1948580382303302 2.3917214324415834 5.0832392927021379 85 37 30 0.14272025126495011 17 6131 18 5580 19 4699
2342 -1.2797080258041598 1.9699925186461087 4.8571963009982539 37 30 28 1.3872152886362641 45 13886 44 16086 43 15456 42 13568 36 7649 34 7032 40 10656 46 12048 33 5731 25 8147 24 9766 16 9053 23 9882 15 8292 9 8827 17 9415 8 9460 22 10115 18 9853 39 8052 20 8130
12613 -1.4529045667043132 2.3534889329828808 5.1498988585497631 57 50 54 0.20599571470261568 18 5218 19 4471 20 7377
2340 -1.7869763086127199 1.7409288927932889 5.063851884911422 43 43 39 0.28900738108783414 45 13838 44 16051 43 15435
12612 -1.2439516868493588 2.0459340695556092 5.2323342564764532 83 85 85 1.6265848481767506 18 4832 21 4970 19 4316
2339 -3.8155939463225819 1.5235827275463758 5.7196477645723345 68 56 26 0.24496937964186918 45 14910 44 16023 43 14365 42 8710
12611 -1.4947391426749104 2.285464453269769 5.1932928430792309 50 45 47 0.052175356164154897 18 5003 19 4313 20 4574
2338 -3.4983369634003418 1.4361490951286149 6.0748984740182195 17 13 11 0.059473016255914883 45 13811 44 16017 43 15409 42 13519 41 12608 40 11026
12610 -1.6825454442476915 2.1668215252542717 4.9146902022530181 76 74 77 0.16998428044540004 21 4738 19 3847 20 4159
2337 -3.9648169092044401 1.4779329137173918 5.7419560051160516 59 42 19 0.23002981028099545 45 13808 44 16013 43 11188
12609 -2.5502485637885468 2.7820132416060264 3.9596162908169119 56 47 48 0.39981726776943155 14 6503 19 3690
2336 -3.5010065204822363 1.4112111917772607 6.0733111666450625 122 91 43 0.26315025648927287 45 11097 44 16006 43 14351 42 13515 41 12176 40 10601
12608 -3.2814056261861237 3.4595875129108076 4.4335087032342324 184 183 169 0.22463741768363499 18 5061 19 3662 20 4484
2335 -3.5001143249657773 1.3903618579107291 6.1874059241639445 33 14 10 0.18909803328009367 45 13799 44 16005 43 14350
12606 -3.2847419567664642 3.4036429813953051 4.461626763281398 56 50 51 0.22283428592055135 21 5350 22 9352 19 3524
2333 -3.5509722488530571 1.2751157797218911 5.8381389377053434 49 43 29 0.23504762990855829 45 11059 42 12416 44 15977
2431 -3.3688444668581901 3.0303878975889735 4.0421629974532296 250 243 232 0.34885078115621326 45 16035 44 18220 43 16560 42 14590 35 8568 36 8291 34 8320 37 8400 33 8390
12605 -3.3307322784434596 3.3696111157491351 4.1400940798328687 69 59 62 0.16515323837731852 21 5293 19 3442 20 4323
2332 -3.4801942033731392 1.1602978049082755 6.2757509802833376 150 128 89 0.48932566087532309 45 11051 44 15974 42 12413
12604 -1.6694022978862244 2.0243218667981839 5.3471553851209919 88 85 87 0.26003602682818233 21 4276 19 3417 20 3950
2331 -2.902374680436858 4.3839879845357395 5.0619681011127451 22 14 11 0.46219297574016643 45 13745 44 15922 36 5816
12603 -1.778764723016192 2.0061879281390276 5.0485716232618545 80 80 82 0.24675130837923873 17 4029 21 4142 19 3254
2330 -1.4283019625760094 4.0085928174005891 4.6653683662745244 106 49 40 0.77345813680984643 45 13654 46 11824 44 15913
12602 -1.7488430698773048 1.9033053283615653 5.4299685941270326 89 82 87 0.11285934329192848 21 3742 19 3090 20 3627
2329 -3.1587695557000681 4.2189970319433288 4.9556577731457203 44 23 19 0.40224597357357228 45 13594 44 15786 43 14124 35 5591 36 5714
2427 -1.2760737579776242 2.0004890222720619 4.8589990489377568 28 26 26 0.45400299328329274 45 15938 44 18130 43 16488 42 14776 36 8866 34 8237 33 8293 25 11282 24 11021 16 12293 12 7955 22 11205 18 10806 38 8305 21 10687 39 8890
12601 -1.8103930045916814 1.9002754176178638 5.2437487446435735 73 68 70 0.090605071791595174 21 3620 19 3048
2328 -3.1446964932325359 4.0174515982270638 4.9419363472260631 48 17 14 0.14325545501152614 45 14697 44 15632 43 13968 34 5158
12600 -1.7881814435822729 1.8833134527900364 5.3547216299578766 82 79 84 0.12416654498319681 18 3222 21 3564 19 3035
12599 -14.131543404761812 11.966012248620471 7.879928544798374 208 196 165 2.2864493561644448 21 9252 19 2995
2326 -2.9255283045560185 3.9620540433660341 4.9732760375763672 84 31 23 0.46960593791217298 45 9894 44 15607 43 13965 42 12101
12598 -3.375122122185779 2.8941312506302257 4.027681540214882 64 22 16 1.3858392400842707 18 4001 21 7907 19 2870 20 6064
2325 -2.9255283045560185 3.9620540433660341 4.9732760375763672 84 31 23 0.46960593791217298 45 9893 44 15606 43 13964 42 12100
12597 -3.4555768733108705 2.6746893306823991 4.0871054438394054 119 117 117 0.2256319736344683 3 4784 19 2336 6 3814 5 5557
2324 -1.1792314264102606 3.6088052136787692 4.9510653515559859 121 53 37 0.43260732937313123 45 13247 44 15566 43 14012 42 12192
12596 -3.5203369223732865 2.6265614084548332 3.9515271359468329 93 94 95 0.23878316027173463 21 3469 23 5187 19 2024 20 2724
2323 -1.2146066960368198 3.5506332051620153 4.9305362982341343 87 32 21 0.35285966137801222 45 13221 44 15498 43 13939 34 5164 33 5014
12595 -2.9741618616701135 2.3233225579724364 5.4112244315964864 87 81 87 0.32298783483896087 18 1638 21 3022 19 2016
2322 -3.1746952210161741 3.8467300322180984 4.907161709719948 67 27 19 0.19182866622923508 45 13266 44 15483 43 9520 42 7690
12594 -3.5761792680025173 2.5535844817419715 3.963935264758232 70 66 68 0.21353005563244207 21 3055 19 1589 5 7901 6 6253
2321 -1.8966156180027434 3.4570015412520823 4.6860887376384781 136 61 49 0.25590605477165479 46 11313 44 15375
12593 -3.5764787162024474 2.5537809078599398 3.9640599045158176 70 66 68 0.19264567321820686 18 7180 21 3054 19 1588 5 7900
2320 -3.3459549457195608 3.542035560404647 4.1595982755519456 78 73 75 0.31542871729943417 45 8912 44 15292 43 13616 35 5270 36 5411 42 11789 34 5007
12592 -3.4382413071054101 2.4500129475004835 4.7718240074929037 83 80 83 0.3035375259320035 18 1620 22 2850 19 1425 20 2409
2319 -3.3280121397024023 3.3635567582172157 4.157514184603861 122 53 49 0.3626920307631063 45 12927 44 15124 42 11676 35 5136
12591 -3.4287420238325126 2.4420914442334554 4.8080769505571661 81 76 80 0.149661355461113 18 1545 19 1410 20 2410
2318 -3.2739929179493159 3.3028750182121001 4.4679820432509807 110 42 37 0.090759515192610302 45 12842 44 15074 43 13411 34 4800
12590 -3.437499165028143 2.4468091251619368 4.7956358475254319 83 83 87 0.30419004125145716 21 2654 19 1407
2317 -3.2529621138856419 3.2231476981810578 4.6644828995842031 143 121 118 0.7391869288156605 45 7901 44 15029 43 13359 42 7164 41 5753 37 4858
12584 -3.2269962593200781 3.2649708903771133 4.706128161396844 102 33 20 0.66688079008853762 24 11404 23 11349 17 12173 22 11336 21 10798 45 16307 43 16955 42 14943 36 9013 41 13351 37 8992 7 9744
2409 -3.4865342460236217 1.5841197979062085 6.1523448079763989 123 108 77 0.24472601346101339 45 15500 44 17624 43 16016
12583 -3.6458788870333114 2.3227309548174158 4.3411305801189766 154 160 165 1.4413627299981786 2 10033 8 1159 24 3441 16 8554 23 2595 17 1818 10 4379 3 2825 27 7707 11 4155 14 8442 18 857 21 1684 47 9099 44 3586 31 3019 43 3541 35 1874 42 3159 36 1506 41 7842 34 2281 37 1327 40 6424 32 2865 33 2548 34 2267 25 4508 26 4924 19 627 39 4442
2310 -3.3455398468750417 3.0524289392281663 4.1164449834506769 107 40 33 0.14223866393324952 45 12646 44 14907 43 13209 42 11494 41 5597 40 4674
12582 -1.7204748521679756 2.0666228653063365 5.0729928543776888 123 121 131 0.30193894680759736 17 4472 18 4089 21 4360 43 2558 42 2469 36 2405 41 7694 37 2614 40 1859 38 2711 19 3470 39 4493 20 3940
2309 -3.3691768592545648 2.9138719705754936 4.0328782054084886 43 36 36 0.20699938481463917 45 7220 44 14768 43 7603
12581 -1.6372031418610977 2.2102576590842928 4.9331992001326741 118 120 120 0.35169151673979715 17 5408 18 4733 21 4877 36 3609 37 3569 19 4017
2308 -3.3705777479036283 2.914160670537977 4.0343711246561007 43 36 36 0.29097616885908956 45 7221 44 14767 43 7602 42 6685 41 5393 40 4526
2406 -3.4788742916978204 1.4731134367768204 6.2778302914238289 95 31 20 0.31787399343450751 45 15486 44 17609 42 14511 41 12945 40 11321
12580 -1.5139366899071307 2.3782711292458352 4.8472874726670598 93 99 91 0.89264511178750772 24 5933 23 6006 22 9210 17 9780 18 8903 21 5389 37 4341 40 8034 19 7558 20 7330
2307 -3.3701805342374405 2.903493384711433 3.9618516939979518 116 33 23 0.43992451981090719 45 7202 44 14750 43 13040 42 11294 41 9857 40 8500
12579 -1.1720311858936598 2.4001637519848642 4.8319862970173766 116 149 122 0.80754136187717929 25 6082 24 6236 23 6370 22 6264 21 5743 44 6481 43 12660 35 4609 42 10908 36 4908 41 9556 37 4742
2306 -1.2611510801020094 2.6876994344466096 4.8015319148076028 106 32 18 0.27681887087374729 45 12448 44 14727 35 4962
12578 -3.6528209782915741 2.3274906199464542 4.3263827885739836 182 183 185 0.64523326474288778 16 8574 17 7801 18 6529 21 6713 42 9574 36 1519 37 1331 38 1279 19 5271 39 1490
2305 -3.2630756508686258 2.8199789305594205 4.6256435133736371 95 36 28 0.18306933161358052 45 12454 44 14674 43 7507
2403 -3.5455268989691526 1.3863637090097787 5.8668542486770301 42 17 14 0.3125633534915811 45 15474 44 17594 43 15988 42 14495 43 16434 41 12933 40 11304 39 8695
12577 -1.6435826727966729 2.0582252458181198 5.33864033862569 127 123 128 0.55544422738941124 17 4078 18 4007 21 7916 36 2392 41 7803 37 2688 40 6501 38 2856 20 6600
12576 -3.2494970147650575 3.3985164856665704 4.6638330664577134 240 247 228 0.34791672943453034 23 6557 17 6101 8 5448 3 4875 22 6110 21 5353 42 7300 37 5045 40 8918
2303 -3.3190716002641758 2.7893006735889569 4.1583702874339092 142 50 36 0.24132299379650884 45 12414 44 14634 43 12910 35 4611 36 4465 41 9709 33 4325
12575 -1.2311691595226113 2.2088359600807599 4.840386636506107 98 128 99 0.63959452115501281 22 5745 18 5421 21 5395 42 4402 36 4138 41 3785 37 4054
2302 -3.2937453705452815 2.6503141703026225 4.7128596374839287 57 54 55 0.1735452823746918 45 12303 44 14495 43 12767
12574 -3.2299578983126112 3.2844716036299024 4.7824517093941932 59 45 45 0.7963628149753359 24 8975 16 9846 23 9111 22 9246 21 8673 43 14823 35 6738 36 7027 42 11651 37 7175 19 3376
2301 -1.4404996779772714 2.4626241714929979 4.7816000493595405 64 64 64 1.9513361433169654 45 12187 44 14431 43 12754 42 12729 35 4636 41 9650 33 3939
12573 -1.1755927739537975 2.3912232187202007 4.8228496952210307 57 70 53 0.39343617969235373 16 6302 15 5580 18 5713 22 9384 21 9054 37 7065 40 9985 38 6675
2300 -2.939579288775624 2.5542140661417232 4.8294016033663638 190 191 191 1.0538044370212587 45 12225 44 14404 43 12647 42 10768 35 6354 36 6563 34 3841 33 3820 25 8700 26 8085 23 8491 17 10625 18 9577
12572 -1.3121610644411195 2.6476448759643634 4.7413813957997499 131 134 136 0.41551105528075621 15 6222 9 6176 17 10039 16 6546 18 9196 23 9212 21 9216 36 7015 37 7242 7 8169
2299 -1.1848496108760076 2.4263367392272102 4.8074179766925997 64 76 64 0.50754946985448035 45 6115 44 14388 43 12730 42 11012 41 9652
12571 -1.7205097672317302 2.0667027281337895 5.0730534647670051 123 121 131 0.31866456929395937 17 4471 18 4088 21 4359 43 2557 42 2468 36 2404 41 7695 37 2615 40 1860 38 2710 19 3471
2298 -1.239289366803124 2.4167968993555857 4.7792622951916561 124 161 141 0.07448672438723522 45 12118 44 14354 43 12687
12570 -3.3575362378676958 3.0494735931645889 4.0697572749033464 62 59 60 1.0717435813099687 34 8324 25 11376 24 11098 16 12100 17 11898 22 11067 21 10563 35 8791 41 13222 40 11403 37 8679 38 8188 36 8714 19 9147
2297 -1.2439529574642028 2.4173075517185358 4.7864309299170245 124 161 141 0.58402824788534036 45 12117 44 14353 43 12686 42 10950 35 4630 34 4254 32 3340 31 2781 33 3865 25 6131 26 5062 27 3704 30 4080 28 2691 29 3211 24 6259 24 8802 16 6342 23 9077 15 5702 9 5879 14 4426 13 2936 10 3948
12569 -1.2852383677913621 2.0127939820238123 4.8479531469224391 197 203 202 1.3732942420491523 34 5805 35 6164 33 5756 24 8188 16 10790 15 8413 9 8957 17 10833 3 4038 18 9876 23 8540 25 8204 21 9839 45 11411 44 13571 37 6379 40 9534 38 7384 39 6915
2296 -1.2360175420378339 2.4082135878442887 4.7898997206390117 50 61 50 0.27188090451309921 45 12104 44 14333 43 12668 42 10906
12568 -1.6507612738854143 2.0486588107769599 5.3383778093423366 197 205 212 0.97266662146628569 16 8207 23 8055 15 1607 17 8627 8 8535 22 8217 18 9682 21 9721 43 11720 35 6118 36 6285 41 7754 42 9438 37 6266 40 9584 38 5779 4 5762 7 6985 6 7578
2295 -1.2360175420378339 2.4082135878442887 4.7898997206390117 50 61 50 0.27188090451309921 45 12103 44 14332 43 12667 42 10905
12567 -1.1987539234396818 2.2641780952319128 4.8572695730563256 57 69 56 0.4510647759172553 23 6031 22 5899 21 5512 36 4412 37 4278
2294 -1.1822523844167192 2.3912515371150502 4.8320180370187424 55 70 53 0.35220091177299584 45 12085 44 14305 43 12623
12566 -1.2046069222723568 3.2474308986184175 5.2934303000373557 167 152 162 1.3092292092944773 22 9702 18 9336 21 10180 41 11903 37 8191 20 8528
2293 -1.1879553989834031 2.3937658300625011 4.8162802135251033 63 75 60 0.76994272554067511 45 5811 44 14304 43 12630 36 4884 41 9526 34 4195 33 3778 25 6059 24 6216 16 6308 23 6351 9 5842 18 5706 38 4326 22 6232
12565 -1.214892421262934 2.3599368587232337 4.8057633732263527 56 72 54 0.28993682317049146 24 6125 16 6240 17 6244 22 6129 21 5648 42 10727 35 4466 36 4770 37 7021 41 11416
12564 -1.5711236091546843 2.0175564485269986 5.3546966150992255 123 127 128 0.52807518606587289 16 2287 23 8028 17 4007 8 3850 3 1106 22 8218 18 4017 21 4402 42 9357 36 2190 41 7644 37 2538 4 2739 5 4262
2291 -3.5095508900271724 2.5456230610996298 4.249252454832618 48 46 48 0.18362814823170595 45 12122 44 14254 35 3501 34 3743 33 3903 25 6029 26 5767
12563 -3.2522561416236062 3.2780733862437956 4.6322345040273092 109 38 31 1.866062448163877 24 6550 16 6454 23 9119 17 5960 8 5248 3 4788 22 10810 21 5187 43 8396 42 11647 35 5043 44 15053 41 5789 34 4765 37 4933 40 10257 25 6788 19 8951 7 6713 4 2465
2290 -1.1700968518362931 2.3572259592555973 4.8419769211038259 52 70 52 0.39573968541517529 45 12030 44 14236 43 12535 34 4073 35 4476 33 3583
12562 -3.1964077461615159 4.3521572608717651 4.900559107381226 112 107 107 0.32030126863209007 24 10322 23 10384 17 11171 22 10542 18 10107 21 10117 37 8216 40 10969 38 7800
2289 -1.2470394970489436 2.3596004794007457 4.798170325354044 45 61 45 0.35782963447291349 45 12018 44 14219 43 12516 42 10713 35 4446 36 4743 34 4064 32 3017 31 2485 25 5936 26 4764 27 3404 28 2557 24 6108 16 6229 23 6251 15 5464 9 5756 17 6220 13 2744
12561 -3.3682393391778498 2.9668388508881671 3.9506843196575785 75 27 20 0.6360211657649486 18 9730 22 10204 42 13672 36 7773 41 12722 37 8397 21 10333
12560 -1.5564877584387027 2.2004557651313434 5.2232074278018406 119 117 123 0.15460293984026124 17 5089 22 5128 18 4651 21 4923 41 8490 37 3618 40 7232 38 3506 19 4083
2287 -1.2294872211746639 2.3298457556913341 4.8102232638578659 64 73 58 0.49190582351198031 45 5015 44 14151 43 12440 34 3932 33 3443 24 6041 16 6185 23 6200
12559 -3.3045277032191773 2.8325519341196927 4.4648779248497794 67 24 16 2.224400601059183 21 10991 17 12401 25 11942 26 10956 16 12647
2286 -1.282677594035986 2.1275445410307925 4.8612483913953222 67 79 65 1.4778602054486913 45 11608 44 13763 43 14468 42 12577 35 6265 36 7680 34 5882 32 5685 33 5850 25 10074 26 7698 24 8425 16 9427 23 9956 15 8656 9 9165 17 10887 22 10214
12558 -1.4898945067469604 2.4221325755274772 4.8206832335018559 178 187 190 0.4159468081360807 24 8744 16 9722 23 9007 9 9423 17 9821 10 3830 8 9755 2 8534 3 7695 22 10299 18 9992 21 9969 35 6478 36 6803 37 6984 40 9968 19 8665 1 1701 4 6504 7 7964 6 8070 38 6569 5 9816
2285 -3.1519798429647743 2.0286495095443158 5.6129177487882504 164 162 162 0.1137681741724329 45 11475 44 13608
2383 -1.7272507711747551 2.0366200248936304 5.0905108951688032 56 56 57 0.24010832556012701 45 15531 44 17068 43 15462 42 13571 35 7404 36 6253 34 7764
12557 -3.2149845826552848 3.5317210089433835 4.6909496942987268 68 19 9 1.0480160306152051 24 11326 16 12332 23 11269 18 10815 21 10703 45 16327 44 18548 43 16866 42 14844 35 8811 36 8907 41 13069 34 8573 37 8890 40 11446 38 8341
2284 -3.3523323855691096 2.0085703512157851 5.6726442322687651 138 143 139 0.50595927411901198 45 11448 44 13577 43 11540 35 257 27 8797 24 7317 23 121
12555 -1.8419180752902218 1.9371110038281056 5.0437052611129189 182 184 189 0.32495861632902279 33 762 25 7894 24 7633 16 8067 23 7747 17 8318 9 7718 8 8379 22 7777 18 9596 21 7291 43 11406 42 8948 35 993 36 6131 41 6999 37 5978
2282 -2.1462103663366476 2.0601289124500659 4.5024155760976274 202 198 204 1.0982841783885227 45 1306 44 13562 42 1431
12554 -3.1940705681083505 4.404613491895776 4.8807174402885796 152 145 145 0.52191424254180907 23 9530 17 10191 8 9948 22 9682 18 9201 21 9327 44 16971 43 15354 35 7186 41 12099 37 7608 4 6268 7 7855
2281 -1.2633699498885982 1.9920936343952051 4.8728921336718258 202 221 231 0.59274863776025155 45 11387 44 13548 36 6352 39 6899
12553 -1.1694143361100522 3.7143362827328033 5.3870377715049322 86 70 66 0.76413590995418179 22 9845 18 6114 21 9510 42 13388 36 7486 37 7701
2280 -1.2871531850217082 1.9959624664338929 4.841415673852504 231 236 232 1.2453569361777788 45 11389 44 13544 42 9177 35 2100 37 6342 39 6901
12552 -3.2504200368653371 2.8729945279950062 4.7342448347511601 173 162 154 0.3947497486777588 17 11484 8 11687 18 10340 22 10779 21 10327 42 14166 36 8269 37 7909 41 12304 40 10750
2279 -3.1542866204923175 1.976120122336009 5.634480543163761 89 93 90 1.0984786444217827 45 1382 44 13535 35 245
12551 -3.1487368496419417 2.2906824961032251 4.8747919009117817 212 215 212 1.7498854981451122 9 1737 23 2751 17 1897 12 7495 31 5923 32 2362 27 7412 28 6307 30 10470 8 1131 2 8627 22 2491 21 2485 41 2897 37 1741 19 1545 1 9623 7 881 5 8040
2278 -1.268437669406872 1.9777813653287435 4.862599321665054 222 229 228 1.0414906811013318 45 11374 44 13522 43 11488 42 12517 35 2001 40 9508 33 1286
12550 -3.3528519829067092 3.4121460359509403 4.1327002231602519 83 82 78 0.52209981695493768 24 6703 16 6721 23 6637 17 6333 22 6226 21 5346 43 13484 35 5168 37 5038 36 5326 41 10289 19 3488 39 6373
2277 -1.8032421506045182 1.9634872191274886 5.0876452794840779 166 176 174 0.366322590095432 45 980 44 13512 43 11477 35 6024 34 5725 42 12509 33 902 25 7919 32 776 24 7679 23 7821
12549 -3.2565504782053551 2.8242545238609713 4.7121380823291537 42 35 33 0.58558863296202046 23 9961 17 10726 21 10322 37 8383 40 11391
2276 -1.2860029725796907 1.9640935096870062 4.846382293076239 222 233 228 1.3268437144795333 45 11350 44 13502 43 1030 42 9069 34 5777 35 6119 40 5884 39 4083
12548 -3.2092578327230776 3.8986874248823242 4.8237963846419056 90 78 76 0.50294774311665813 16 12173 15 11459 17 11950 18 10652 21 10714 24 11179 23 11140 22 11254 19 9191
2275 -1.8032292130043006 1.9523663926158668 5.096822583971143 89 84 88 0.60811578514205744 45 11352 44 13498 43 11458 42 9024 35 6014 34 5718 33 5694
2373 -3.1932575469404672 4.3377725094297555 4.900056602610527 137 120 115 0.20553085308369584 45 14846 44 16945 42 13411 37 5475 40 9232
12547 -1.1655180233098739 2.3897066499889088 4.8358576235758992 53 62 50 0.3662359261892873 17 6320 22 9387 18 5719 21 9060 41 11441 37 7071 40 9990 38 6681
2274 -1.2778313807290658 1.9599261484699861 4.8524036339456389 50 38 42 0.49663040648309753 45 11325 44 13486 42 12510 35 1822 34 5772 40 9489 33 1151 25 8120 38 7356
12546 -1.2359659550858166 2.7285854920961428 4.8120057591806047 136 138 128 1.3727815808716575 34 7233 32 6027 33 7309 24 10015 16 11032 23 10711 9 10793 17 11102 8 10981 18 10458 21 10410 43 16129 36 8354 41 13034 37 8714 38 7990
2273 -1.7892203753226588 1.9430709018298871 5.0899957443974602 108 110 111 0.24686576533569315 45 11319 44 13464 42 900
12545 -1.7260972351474944 2.0576794966387322 5.0668298262241533 147 150 154 0.52388537564376259 9 8144 23 8176 17 8859 3 6653 18 7950 22 8272 21 7835 37 6245 38 5728 19 6665 3 2446 4 5917 20 6467 6 7497 5 8942
12544 -3.2233935870919463 3.907016446411439 4.6375429438226856 106 40 27 1.8332929298786464 24 11621 23 11616 17 12412 22 11534 18 11099 21 10974 43 17201 42 15170 35 9176 36 9252 41 13493 37 9126 40 11847 38 8600 19 9578
2271 -3.7361225860497842 1.968057410473814 4.8359551907752474 178 193 192 0.1007943403189886 46 12041 41 6765
12543 -3.2237465908813925 2.9666965462656969 4.7740680754945117 75 25 15 1.0105009564592391 24 11303 23 11248 18 10796 21 10682 43 16838 42 14814 35 8781 41 13219 34 8541 37 8863 40 11596 38 8318
2270 -3.640502468900074 1.8826153664360241 5.6182136346328031 127 125 127 0.20741600646719643 45 11235 44 13336 43 11288 42 8782
12542 -3.2493888308899823 3.3985839834234159 4.6631445753949876 241 249 225 0.26158428126320388 17 6102 22 6111 21 5354 42 7301 37 5046
2269 -1.8802245629438876 1.9562147905010572 4.4854939027340395 215 223 218 1.7553886904470719 45 11217 44 13330 43 11293
12541 -3.2370319414738522 3.3703368466300523 4.7975276809412897 29 23 22 0.39175189414807327 23 9147 17 10933 8 10723 22 10314 18 8503 21 8777 43 14853 42 12994 35 6763 36 7067 43 13445 37 7229 19 6711 7 8596
2268 -4.1674225919554271 1.8464552010526418 5.8366607608894698 65 26 19 0.50343145724922966 45 11203 44 13305 43 234 42 232 42 8774 41 6755
12540 -1.1404115328106061 2.3879967167256915 4.9008726911999627 45 60 45 0.40230308170190487 23 6336 22 6235 18 5715 21 5744 43 12645 42 10896 36 4887 41 9548 37 7077
2267 -3.5734907585058471 1.7707893602796003 5.7116408454820977 64 23 14 0.2362818176976072 45 11172 44 13285 43 14401 45 13857
12539 -1.3820295683885067 2.5718185686690163 4.7346833590002424 173 175 182 0.43653864566825079 24 8889 16 9869 17 9976 8 9914 22 10383 21 10036 35 6607 43 12918 36 6963 37 7999 7 8117
12538 -3.3672372570385751 2.9706338470662348 4.0326265077232559 187 180 168 0.56187600691246742 17 12094 18 10798 21 10679 36 8880 37 8862 19 9321 23 11254
2265 -1.7252826142597384 1.7925135245559163 5.0557157113934679 124 48 34 0.32581632613507994 45 11161 44 13269 43 14398 42 12476 35 5947 36 6065 41 11059 34 5649 33 5641 25 7735 16 7735 23 7557 15 634 9 885 17 8049 8 8201 3 1181
12537 -3.2339820328990854 3.3201302196927234 4.7386092036755825 108 36 23 1.5498025153843582 16 12461 15 12016 9 12064 8 12026 3 9774 22 11458 18 11015 21 10900 36 9146 37 9051 19 9497 7 9863
2264 -1.7164978936532103 1.7460568724845469 5.0868029181263985 23 12 10 0.055707027219517376 45 11154 44 13251 42 12469
12536 -3.3563649249261238 3.3462004231493658 4.0683029868465965 63 57 56 0.33740341995536127 22 10817 18 10384 21 10357 42 14240 41 12756 37 8430 36 8353 40 11171
2263 -3.5147863207895131 1.5350845481913982 5.9514657274657488 25 15 12 0.12545495603158074 45 11126 44 13227
12535 -3.5600512545517278 2.5373907403872566 4.0748411345202102 111 104 113 0.27218542667296586 17 4150 22 3602 18 2555 21 2989 41 3965 37 2539 38 2133 19 1558 6 3377 8 8389
2262 -3.5199796933959879 1.3334328258359063 6.0052852247886852 81 31 17 0.13467691045184116 45 115 44 13184 43 11144 42 8674
12534 -3.4266688192504913 2.6448134612893743 4.2658912129879205 102 97 99 0.56772608621530285 25 10181 24 9852 23 9908 17 11473 11 7856 10 9232 8 11332 2 13446 3 9239 22 10017 21 10312 42 12685 36 7688 41 11382 37 7838 19 8908 39 7288 20 7868 6 8895
12533 -3.249848423374377 2.9562718191402828 4.72845269015939 30 27 26 0.16968466341076968 41 13009 37 8672 40 11399 38 8184 21 10560 17 11492 18 10351 19 8934
2260 -3.5714631262230929 1.2815732082964468 5.6264940647048904 97 71 45 0.27991183642415374 46 9139 44 13166 43 11124 42 12415
12532 -1.7835508732544616 1.9966994632282837 5.0609042407297258 209 209 217 0.38046903514038632 23 3449 22 3907 18 3799 21 4103 43 1586 42 1572 35 1410 36 1716 37 2016 5 6742
2259 -2.4053960097066982 4.2843395108403621 4.874007526086042 95 50 38 0.15592385281585855 45 10967 44 13032 43 11046
12531 -2.9897631636368862 2.5378142271562432 4.7211644580850223 136 136 138 0.29362717596450288 43 6677 36 3691 37 3316 21 3963 18 3375 23 4875
2258 -1.933505654996541 3.9761789957502773 4.7570934373052509 137 61 43 0.50074153727243631 46 11756 47 7768 44 12194
12530 -1.837179990517134 1.946461360527322 5.0374171098656069 125 125 132 0.15666665235257207 22 3480 18 3612 21 3832 41 777 37 1587
2257 -1.472147625365624 3.7522048436459983 4.6575164882430116 150 112 107 0.030487289216436994 45 13395 44 11684
12529 -3.4751012816660736 2.5529467838449822 4.34218302312979 184 190 194 0.34653340543004635 23 4511 22 3675 18 7129 21 3216 42 5448 36 3265 41 4285 37 2739 19 1784
2256 -1.1935330682505425 3.7026503268273863 4.9605464579596754 81 27 18 0.10800418979908537 45 9772 44 11522 43 14086
12528 -3.3094577121233373 2.0059395977918579 5.6606630400218512 135 137 136 0.8786653266623935 23 9782 22 7013 21 674 36 6040 37 5837
2255 -3.3454096911102602 3.9426619920161596 4.1463175273789092 71 71 69 0.18126988014540454 45 13447 44 11384 35 5501
12526 -1.2748285366149574 2.827118558521394 4.6883255412467957 129 124 122 1.3022482762216729 18 11070 21 10976 19 9561
2253 -2.4013751186813654 3.4645303658760427 4.756714569435661 79 20 11 0.1994570845384224 46 7749 44 9769 42 7529 43 8998 41 6024 30 6621 29 5560
12525 -3.2935627568234747 3.957382518215693 4.3273161015670469 80 32 22 0.99058469926786807 18 11101 21 10975 19 9580
2252 -2.9350281187772396 3.4356614877750946 5.0585008950327905 56 25 19 0.094812455435964574 45 8553 44 9337 43 8715
12524 -3.3354415891454376 3.4436651495651889 4.2567005741088755 71 23 15 1.5190982390300025 21 10968 19 9576 20 9198
2251 -1.9178980185148922 3.1787036522793088 4.6451411359404338 103 77 75 0.23293281525791165 45 12818 44 9046 43 8583
12523 -3.3305259260848774 3.5214093425234299 4.1034434219951992 134 120 112 1.1382575916361342 18 11095 19 9577 20 9181
2250 -3.2748521101044199 3.2741519047981771 4.4631856324160513 110 41 33 0.16147909906994287 46 11058 44 8806 42 7209
12522 -1.1554424309561333 3.3201289729807124 5.4381552887785718 79 31 25 0.45809145066811491 22 11150 37 8534 21 10621
2249 -3.2407212474023455 3.2471911009241805 4.6187420123718654 121 40 31 0.75185405709674757 45 7965 44 8669 43 8329 42 11621 35 5026 41 10230
12521 -3.3522564702486961 3.0489979246087677 4.0083414763389449 55 53 50 1.0456456956066957 22 11068 21 10565 19 8947
2248 -3.32157590889237 2.9466429852386824 4.2497747714643035 107 31 21 0.23975086091423259 45 7294 44 7708 43 7693
12520 -3.2705886847219618 2.9763998751980094 4.6199612766008205 36 29 27 0.28048182782104636 18 10603 21 10561 19 9141
2247 -3.2964790903602306 2.8620063557145374 4.418063434521696 129 52 35 0.43481586781199166 45 12487 44 7462 43 7547 41 5369
12518 -3.3716224103836914 2.9435363346555254 4.0535442156051493 38 35 31 0.25481724558669011 22 11053 21 10553 19 9125
2245 -3.3192047717148498 2.7967527348020584 4.1933601113262027 69 20 11 0.39700728116784528 45 6975 44 7317 43 12916 42 11162 36 4479 41 9721 37 3924 21 4247 39 5981
12517 -1.157507309044528 3.6103202907358791 5.3945784864736348 78 33 26 0.53106000920343044 18 10240 21 10490 19 8868
2244 -3.3138659240765587 2.6357083612955696 4.7216272983468848 93 89 89 0.38871669659582919 45 6634 44 6935 43 7058 42 6241 41 4992
12516 -1.1911444649765428 3.3089698888882486 5.2970647005367182 71 64 67 0.33217940569896554 22 10583 21 10464 20 8780
2243 -3.2770685909448396 2.576971314548032 4.7312500287756514 199 194 199 0.30138390775069374 45 6417 44 6691 43 6779
12515 -3.2743516794371041 3.3081554045799031 4.4495470373619357 159 156 137 0.029757982378564397 18 9838 21 10353
2242 -1.1979376472075296 2.426794252161272 4.8020405744729153 65 75 60 0.2785482151533864 45 6114 44 6678 43 12727 42 11011
12514 -3.2289459652759107 3.2616698168657603 4.6898313235592628 71 28 19 0.64498399764118475 18 10373 21 10347 19 6563
2241 -1.2078950683423684 2.409593281281722 4.7989622093997628 63 70 58 0.30915682452188714 45 5957 44 6554 43 6927 42 10937 35 4626 36 4923 41 5250
12512 -1.1996419500838085 3.2791546699345004 5.2624319235485579 99 82 81 0.76214828534424472 22 10576 21 10191 19 8841 20 8539
2239 -1.3700250634799924 2.4175529002232761 4.8087594380689147 202 225 185 0.19902412598089225 45 5978 44 6520 43 6896
12511 -1.1989243583272984 3.2189281945020132 5.2702829505455444 184 176 163 0.97232751658888028 18 9331 21 10176 19 8834 20 8767
2238 -3.4913687317298052 2.5830594801311602 4.203550873998787 140 139 149 0.14569775265448759 45 6297 44 6472 43 6437
12510 -1.1683241845732701 3.1794902270651595 5.4795741714994017 96 82 85 0.63617957881298537 22 10538 21 10168 19 7964
2237 -1.4697822587080376 2.4159503574019818 4.832496030287901 179 222 178 0.15906153272137261 45 5922 44 6451 43 6822
12509 -3.3136007486838541 4.4417869245998309 4.238124039948798 119 118 115 0.23199416366900713 18 10135 21 10125 19 8716
2236 -1.2191970557299723 2.4015337296210655 4.7956511849963421 147 167 142 0.60444516436005946 45 5866 44 6441 43 6864 42 6280 41 5220 37 4711
12507 -3.2186462247722436 3.8382041490258025 4.7885204750773793 116 107 96 0.03617272143716338 18 9998 21 10049
2234 -3.4987737153813994 2.5736653100276023 4.2153480028853334 203 209 207 0.20170730321166072 45 6240 44 6389 43 6343
12504 -3.3502755527112424 3.3434334051170533 4.1024718816575261 53 52 51 0.086162611779970866 22 10330 37 8023 21 9915
2231 -1.178726248380954 2.3650667774826886 4.8426350721883757 110 140 116 0.25564073315829183 45 5516 44 6141 43 6600
12503 -1.5392927020772018 2.221854115390272 5.2258906037940882 158 157 159 0.094590573159488114 37 6662 21 9866 19 8532
2230 -1.1655782461053599 2.3587361600961754 4.8597571892322904 51 69 51 0.42599037698987574 45 5456 44 6080 43 12544 42 10760 35 4482 36 4798 41 9373 37 4626 40 8164
12502 -3.2931984493450326 3.0748257543367661 4.3655299375552419 43 13 9 0.59856707532329845 17 10895 21 9828 19 8215
2229 -1.1955717132123826 2.3584445441079405 4.8236982591848374 65 73 54 0.12371067125168422 45 5407 44 6030 43 12529 35 4473
12501 -1.2559438470613995 1.9854976741032568 5.2434679470813776 105 109 111 0.74324065191380229 22 8601 21 9823 19 8549
2228 -1.4591608129534615 2.3736340655657351 4.8451958996827997 169 207 170 0.080475645387300995 45 5473 44 6029 43 6435
12500 -1.7173696742348108 2.076077147605154 5.0597392321052279 179 179 183 0.6954553158562693 18 9706 37 6280 21 9730 19 8348
2227 -1.2067586410641502 2.3523769404639916 4.8206753861196203 160 198 167 0.29417896496584206 45 5311 44 5936 43 6426 42 5959 36 4745
12499 -1.7184177773356979 2.0771094563668129 5.0616911676778438 179 179 183 0.46679698740684494 18 9705 21 9729 19 8347 20 8036
2226 -1.2446803147250234 2.3510833262055351 4.8013814055344834 154 192 162 0.40327676793797451 45 5272 44 5887 43 6357 42 5890 36 4709 41 9280
12498 -1.7468310300682457 2.0339621599478299 5.0872425768795111 118 116 121 0.72885835096123996 22 10008 37 7797 21 9697
2225 -1.2726741800056431 2.3507044872936658 4.7976359947653 128 165 138 0.30084238594331586 45 5252 44 5869 43 6313 34 4007 25 5889 26 4726
12496 -3.5872057911180768 2.5722338987094195 3.9876684937571212 165 165 156 1.8885784019367282 18 9522 21 9581
2223 -1.2371681182474419 2.3367967145649624 4.8092877920409265 156 198 162 0.19513572243536653 45 5092 44 5742 43 6191 42 5765
12495 -1.1314056962371304 3.6841578917228484 5.6141318526650741 97 89 86 0.58425419876677065 22 9822 21 9502 19 4981
2222 -1.2362305989594522 2.3371098538944404 4.8072767037300519 156 198 162 0.37395727916819199 45 5091 44 5741 43 6192 42 5766 41 4821
12494 -2.2977987479168833 4.4781197725438275 4.675617805863479 223 192 178 0.27867124922320063 18 9391 21 9477 5 9806 3 8304
2221 -1.2476044869023308 2.3354053309624141 4.8013577512502135 124 166 145 0.070138636323951772 45 5073 44 5721 43 6170
12493 -1.1406993724257311 3.3533665342175905 5.4428217177900242 66 24 20 0.24602077663708979 22 9738 21 9448 19 4938
2220 -1.2356329982584326 2.3210771373443251 4.8077608744839218 179 221 177 0.34636292261515889 45 4902 44 5530 42 5624 43 6016 36 4599
12475 -1.5288048510496759 2.2332624760542319 5.2254536701537013 58 46 49 0.21216279069840138 37 3779 21 8530 19 4186
2202 -1.211430045619424 2.2473654696749752 4.8511411644124331 63 86 64 0.20912921776450349 45 4071 44 4559 43 5083 42 10200 36 4339
12474 -1.5288048510496759 2.2332624760542319 5.2254536701537013 58 46 49 0.21216279069840138 37 3780 21 8529 19 4185
2201 -1.2756227970801839 2.2449361031949828 4.8235844001143313 108 142 106 0.24606807439850353 45 3978 44 4431 43 4929
12462 -3.3773411483548514 2.9453169149855931 3.9652952990827521 128 116 109 0.29936417819909567 18 4145 21 8016 19 6102
2189 -1.4856506658946722 2.2147482721301097 4.9149304901574213 79 92 70 0.27366328522617583 45 3638 46 3633 44 3968 43 4376 35 3458
11768 -2.085710316709656 2.1752961337150345 5.3653468545109524 159 165 161 0.19343689515770895 8 8086 9 7532 3 6000 4 5503
1495 -1.3160075298270568 2.1079679813162562 5.2520860737519079 246 255 254 0.34767879410496672 47 8819 48 7028 31 1201 30 9164 27 7141
11767 -1.3701586124998435 1.8655387433201358 5.3920648843167847 95 99 101 0.36204774461817207 8 8486 9 7309 3 5988
1494 -3.2270990173323493 2.0284580332729489 5.6259716495220413 214 209 205 1.702416535521027 47 8722 48 6958 45 11472
4696 -3.1869750805071302 3.5513414962786531 4.8682379878724396 56 20 15 0.10606430439123975 35 5210 34 4903 33 4861
11766 -1.5854986046915038 1.9428351152598213 5.3946778925381675 112 114 120 0.33146798649465281 9 7319 3 5933 4 5720 7 6889
1493 -3.097813120296729 2.0059480239830374 5.6291287806279771 251 253 254 0.40024617106256771 47 8675 48 6921 31 849 32 734 25 408 26 861 27 1228 30 9244 28 1506 24 317 14 183 13 6501 12 5951
4695 -3.282107070443764 3.4024749607838913 4.4203600296960195 40 28 33 0.32777923876594484 35 6799 34 4866 18 4975
11765 -1.1005500049520147 4.3408008536233336 5.0813910528959445 118 116 122 0.78760559147922671 8 10366 3 5638 4 4484
1492 -1.2523239576449727 2.0431332017727537 5.2700632773145477 62 31 27 0.48596736519750933 47 8701 48 6899 31 842
4694 -1.5554329889296812 2.9721902290986275 4.5348183678062117 67 20 13 0.28484142830760595 35 5157 42 11650 34 4798 33 4594 32 4411
11764 -2.1427789663026071 4.4280833216382218 4.7883022213740487 73 71 73 0.38417923473558269 11 5325 3 5593 1 10462 4 4284
1491 -1.4217341372018966 2.0037474810465787 5.332098024183856 253 255 253 0.032216127099806785 47 8624 48 6833 31 660
4693 -1.2904587784607218 2.9326411950789044 4.6369410802869924 103 25 15 0.40515355065286673 35 5175 34 4787 37 5211
11762 -3.0609235520559426 4.5005433467715461 4.5474096210620738 106 96 96 0.22282924848139768 9 6756 3 5535
1489 -3.7108880792394161 1.9779470390245923 5.1157243773027039 140 140 144 0.79753285177201438 47 780 48 6759 31 994 32 719
11761 -1.4211061433015075 2.5280678596736306 4.7446511607930466 125 131 130 0.23661855240192886 2 8844 3 4995 4 6577
4690 -1.5620456725493823 2.9160952823586768 4.5325731660723561 109 49 36 0.2100531556647513 35 5110 34 4760
11760 -3.4685487565217121 2.6778347441472956 3.9859306105708492 97 91 97 1.0965211575201161 2 10972 8 8900 3 4917 19 5870 1 10671 4 5490 11 7278 7 6390 5 8043
1487 -3.6210726150800583 1.8789255355878969 5.7229092090771214 168 162 163 0.96974188239350911 46 504 45 481 44 13342 43 11292 35 5922 31 7162 36 6012 41 11069 34 5639 37 5763 48 6718 32 156 26 7239 27 8790 30 13269 28 7391
4689 -1.8426110084498908 2.9781910580643061 4.5867692375517652 70 23 16 0.33960780303196048 35 5097 34 4758 33 4555
11759 -1.5287469336399806 2.3550654991374262 4.8705120281018379 65 80 64 0.6966245420849897 8 5773 3 4470 4 3919
1486 -3.4364883075606873 1.8788498066193595 5.6690628720741358 62 25 20 0.19189792023663027 46 9324 47 8451 48 6712 45 11245
4688 -3.3342669178632898 3.0852668544990638 4.1211613160442839 173 56 35 0.030330015490341138 35 4949 34 4714
11758 -1.5388074176867215 2.3366784593260999 4.8780095590661485 68 79 67 0.67392520676316914 9 9285 3 4395 4 3889 8 9616
1485 -3.2068352387787296 1.8808060721236963 5.6229454005921689 56 25 20 0.33527802169209725 49 5423 48 6706 45 11248 36 87
4687 -3.3302386077046791 3.0839567166286623 4.1177353008041573 173 56 35 0.28296416613101089 35 4950 34 4713 33 4599 32 4523 25 6802 24 6534
11757 -3.4621405704337862 2.6120287780110218 4.2205514795818377 86 88 89 0.12901973605016576 10 5290 3 4377
1484 -3.1392512355169684 1.859702829773543 5.6977723235782243 254 254 250 1.5779732492090732 47 8437 48 6694 44 13340 45 452 31 5712 30 13256 28 5902 13 8139
4686 -1.2993837642768766 2.7217355676612227 4.4679336819155635 79 22 14 0.35694442884802213 35 5020 34 4665 37 7315
11756 -3.5106800721078284 2.5451698514911389 4.2180826943824377 83 86 86 0.18430243736396987 2 10473 3 4189 4 1469
1483 -2.8381776027715593 1.9378530907991847 4.9092649974673028 0 0 0 0.169290057121668 47 8416 49 5369
4685 -3.294554703804268 3.0074047286008132 4.4299078061417099 94 38 30 0.37222564253477192 41 10100 34 4627 37 4497 40 8738 38 3927
11755 -3.4417803553901964 2.5922674044942706 4.3386694926868028 93 96 99 0.14573079821395676 9 4974 3 4043 4 1552 8 3457 5 5437
1482 -1.2478541846967499 1.8758251289436472 5.3677673020545198 189 180 180 0.058663360326167424 47 8421 49 5361 48 6657
4684 -1.3957685977659238 2.6203336835753555 4.4545895341202222 105 48 37 0.21208538955111708 35 4920 34 4586 26 5887
11754 -1.4573769654170452 2.3376571372543857 5.1312463301753342 153 157 159 0.26609743942477876 9 4632 3 3730 4 6368
1481 -3.2873105216887013 1.8364373703397709 5.6840571533941535 246 232 230 0.062304971377703335 49 5368 48 6648
4683 -2.4077405167487527 2.8301354674275725 4.6790542049606403 83 32 25 0.028195780674569251 35 4858 34 4582 33 4361 25 6535
11753 -1.4442267147784313 2.3425596295383246 5.1595419474072335 104 105 102 0.21726268805485413 2 7293 3 3665 4 3793
1480 -3.5980051386112497 1.7721448513137366 5.7197293211718856 57 23 14 0.34951985238737304 47 261 48 6617 31 68 32 51 31 5695 27 57 30 8544 28 559
4682 -1.331737802565506 2.6258309448929817 4.7483364021365375 105 100 109 0.4734764273515259 43 12997 34 4548 25 6466
11752 -1.4514840824545245 2.3246243865995422 5.1719236367624006 99 109 110 0.4068732231363556 2 7205 9 4424 3 3563 1 222 4 3753 7 4581
1479 -3.5713720807305367 1.6979433932788563 5.7112913598533588 66 23 15 0.66057726033546982 47 8358 48 6604 31 49 42 180 32 37 33 31 27 2 30 8440 28 234
11751 -1.4816719561584881 2.299930314241653 5.1796906233724265 105 104 104 0.029502608315447709 2 713 8 5332 3 3394
4680 -1.3626944585460119 2.5957833826329249 4.7498808280204132 118 116 121 0.24322618726919004 43 12953 34 4516
11750 -3.3132492920939427 2.6526622602321943 4.6530919878358166 118 127 130 0.25569307614443171 2 4363 3 3344 6 1075 5 3154
1477 -3.9841256292525884 1.6609254334970727 5.7693258734990707 58 47 34 0.6554229144482614 46 201 48 6600 43 185
4679 -3.452116152647414 2.6985140371688519 4.0268100537877984 185 191 187 0.15343683638030839 43 7139 34 4347 25 6456 33 4227
11749 -1.434229382280118 2.1941827122152184 5.2313201568438989 95 96 100 0.29431026579650355 9 3536 10 1239 3 2862
11748 -1.6210962045874551 2.1596812090753281 5.1196478823613951 134 139 140 0.072399996700184266 9 3405 3 2848 7 7367
4677 -1.2775810880735996 2.4246348381911753 4.7807759950021884 48 61 40 0.32944656167529957 31 2834 35 4634 34 4262 32 3373 33 3885 26 5116 25 6147 27 3755 30 10404 28 2723 29 8934 16 6335 24 6257 23 6358 14 4470 11 2330 13 2993 12 2385
11746 -2.9240349186346206 2.5432007843674822 4.9121019811910216 160 161 159 0.63963526846517882 9 3731 3 2617 6 6842
1473 -3.7892095654105025 1.4187492529168526 5.7013321226857707 22 15 10 0.058482921688127971 47 8312 48 6569 44 152
