# 3D point list with one line of data per point:
#   POINT3D_ID, X, Y, Z, R, G, B, ERROR, TRACK[] as (IMAGE_ID, POINT2D_IDX)
# Number of points: 383, mean track length: 4.8683369766268703
1774 -0.40358170380990332 0.19619589885136487 3.6837433005443292 35 34 32 0.49942493901179041 40 303 41 308 37 319
1773 -0.58510528944980011 0.19687228386452746 3.9140010213594278 125 124 122 0.24081694614227214 40 277 41 294 44 415
1772 0.459378345699757 0.14493594667494394 4.391419289546139 126 127 129 0.75441805961554753 40 242 42 325 41 247 22 399 21 313 20 492 19 453
1771 0.06886372513970658 0.071397934378671674 3.5418086413053258 190 189 185 0.47025561001713551 43 255 41 207 37 106
1770 -0.23343221615912962 0.075950863385125647 3.5007730020270627 73 73 76 0.56534472590519846 42 286 41 205 48 173 46 138 23 11
1769 0.041062413845042216 0.068544458602652916 3.5376940849604956 77 77 77 1.0611138539848219 42 1206 43 252 41 203 37 111
1768 0.44878446692808233 0.079208804357447968 4.3737254646772463 89 90 92 0.37546943713777664 40 207 42 258 41 196
1767 0.52378332898927782 0.035694075653768385 4.2875137476172736 73 77 80 0.56875034775591948 39 116 41 172 26 123
1766 0.36608825615954943 -0.16642074387496009 4.0996816836830625 147 146 144 0.2236770591221254 40 100 42 122 41 101
1765 0.36608825615954943 -0.16642074387496009 4.0996816836830625 147 146 144 0.2236770591221254 40 101 42 121 41 100
1764 -1.0627866814968709 -0.17844604449700521 4.0890814084989469 179 149 98 0.057335513724647111 42 104 41 78
1763 -0.22686643400313761 -0.42890619400802399 4.0328392695387629 130 129 124 0.68201694861731166 39 20 41 25 44 35 45 18 3 143 48 169 8 278 6 321
1762 -0.17038046756741215 -0.47735041205002793 4.0376665153646067 64 63 61 0.69707234676437035 42 27 41 19 10 324
1761 -0.040199546378993811 -0.57186646621824844 4.3273652137621532 25 71 125 1.2317667912027579 42 17 22 155 40 14
1760 0.81305003757545191 -0.11734771534261657 4.8416479459562609 230 229 224 0.12220120418329966 40 2004 26 1207
1759 -1.3154026119544184 -0.35927814048186096 4.7162460233605437 246 239 229 0.89262282093611689 42 2403 41 2011
1758 -1.3154026119544184 -0.35927814048186096 4.7162460233605437 246 239 229 0.89262282093611689 42 2402 41 2010
1757 -0.5174628431946513 -0.49832500759705489 4.5806160900888973 224 222 215 1.6529919446258634 42 2341 40 1920
1756 -0.79974444121983868 -0.011827524217799789 4.4850052689035529 95 70 36 0.76479486887797199 42 1864 40 1686
1755 0.25165585502706816 -0.061265955660118547 3.9259224779150212 61 62 57 0.74407083785449757 42 1865 40 1501 41 1479
1754 0.41185335905231879 0.22449913711895556 3.8266479440089922 130 129 124 0.43398892367783509 42 1285 40 977 41 1538
1753 0.41603852348042913 0.24496323594111236 3.8414821544819313 136 135 131 0.24561567380143168 42 488 40 358 41 941
1752 -1.4162174997256567 -0.26410534653088102 4.3312269221798747 204 177 122 1.5025080335139891 36 878 38 893 40 1481 43 1751 39 1261 43 999 42 1841 37 1205 44 1413 46 836
1751 0.13866874140415891 0.41674944150466708 3.6548837236695446 69 69 72 0.38304766492658437 42 2212 43 2020 38 1640 39 1488 40 1723 41 1730
1749 -0.7425758241949314 -0.41349096323811246 4.4924531649387571 233 230 221 0.69366062362000847 42 2441 41 2061 33 1299
1747 0.47250528651338286 -0.298672671470746 4.613894890463035 99 65 28 1.2555523436479994 39 1745 42 2432 40 1987
1746 -0.56815301513429362 -0.39575495191475074 4.2689316520088871 228 223 217 1.37491903016142 38 1880 37 1758
1744 -0.067092383456685389 1.278059431097333 4.551881636234917 49 78 120 2.4110847795381565 42 2415 40 1976 41 2031 43 2258 44 2132
1742 -0.76725562622817878 1.1631961199798846 4.4169497434204139 64 53 41 1.092483988597778 42 2413 40 1974
1740 0.41686855584812244 1.3938194700929534 4.553521473164543 110 110 110 2.3190150763624358 42 2394 40 1963 41 2004 37 1734
1739 -0.30805192082531746 -0.01209525967319423 3.7603401914494956 117 116 114 0.44904412589953346 38 1812 43 2231
1738 -0.95123171283324925 0.78232538369604376 4.5615335151813001 214 209 203 0.78327608077677457 42 2354 40 1930 41 1967
1737 -1.2950293074493981 0.72227206177204351 4.6439181360866035 236 230 223 0.0164770641819302 42 2325 40 1926
1736 -0.30991491828075585 0.22486412779710807 3.6885861490554737 28 29 29 2.1529077585473759 39 1674 42 2315 40 1922
1733 -0.15779982571241816 -0.045222333795476827 3.6519448574762912 115 114 110 0.43946212586690542 42 2346 40 1896 41 1877
1732 -1.016194668508239 0.021706501753619503 4.5768510244304865 197 166 105 1.4535913109694032 42 2310 40 1895 41 1923
1731 -0.44219249854706133 -0.58090203688754471 4.3902099126384977 227 227 217 2.2102670383264669 42 2305 40 1889 41 1867
1730 0.053568856952039022 0.52734843012228183 3.6377604344892505 69 70 72 0.91856826825449001 43 2099 40 1872
1729 0.41518086842862623 0.46832798055073482 3.7701111889872032 109 110 112 0.86498271980662933 42 2286 40 1870 41 1897
1728 0.21369328154495559 0.38877386706201233 3.5283339858688456 148 147 143 2.215394431108388 39 1575 42 2323 40 1866 41 1962
1727 0.0073460317322216369 0.18551228350686061 3.4664627769064666 191 192 186 0.099219834329043174 42 2273 40 1860 41 1885
1726 -0.54651580605537553 0.027698342647453189 3.8503760904497586 101 100 96 0.80170057611607237 42 2268 40 1855 41 1880
1725 -0.30434157868548273 -0.71212149666301461 4.2881664663940189 237 234 225 1.981838037421739 42 2251 40 1845 41 1865
1723 -0.48502280563288847 0.85250342828400061 4.0032115123279794 97 97 95 2.0745328076297214 39 1594 42 2295 40 1826
1722 0.025182453192337327 0.45882458598989184 3.5404435085053763 51 51 53 1.0054419280801907 42 2287 40 1811 41 1829
1721 0.23456707756098738 0.42962183443936774 3.6943640408086797 82 86 89 1.2527644960666455 42 2283 40 1808 41 1930
1719 0.15128054018534343 0.31175874139110638 3.4672392185909766 101 103 100 1.100668313612488 42 2206 40 1796 41 1811 26 843 27 683 25 875 24 859 23 1022
1718 -0.054792566339664901 0.20027798876394862 3.4543651621551388 181 179 172 0.89149954230315243 38 1696 40 1789 41 1886 44 1943
1717 -0.45276317387905962 0.12962583235945541 3.7411564428894066 77 76 74 0.90420978020664966 42 2194 40 1786 41 1705
1716 -0.52397012371928997 0.05250290955809319 3.8235063496180546 91 89 85 1.7796755401119064 39 1555 40 1782 37 1521 36 1089
1715 -0.45322836641534686 -0.22240633484404904 4.3276696022111727 123 125 122 1.6204461001329529 39 1543 40 1774 41 1796
1714 0.57304741067984133 1.1139931015201012 4.5468980957947762 143 113 65 0.73653431016438686 38 1576 40 1756 37 1461
1713 -0.38870148102619234 0.7737072722477073 3.7597741292497773 132 132 132 0.80289834149964079 42 2149 40 1745 41 1760
1712 -0.012089496271444136 0.53100471602800114 3.6704864093342233 100 101 103 2.7683019694573421 38 1726 39 1513 40 1737
1711 -0.61266804260901453 0.56915903050220551 3.9988390125751483 140 139 135 0.83101367805003312 42 2130 40 1730 41 1594
1709 -0.41054625219222413 0.20023281891849815 3.6802823389838029 98 97 95 0.32359765887880315 42 2100 40 1704 41 1714
1708 -1.0403342772822415 0.236138746748391 4.664018866188032 115 111 107 1.2641306397440009 39 1474 40 1698 28 520
1707 0.46043603488617119 -0.0016052532738484362 4.253533584364944 59 63 66 0.69852906638014256 39 1461 42 2075 40 1690
1706 0.0080248323434146829 1.3112233149227555 4.5588318886247885 98 99 103 0.74215635673425429 42 2042 40 1661 41 1662
1705 -0.66537847214611978 1.1558358544557337 4.511448088884773 171 164 155 0.72646716979873671 39 1421 40 1651 45 1250
1704 0.55754440901386493 0.91634055163391004 4.4161475086847179 15 74 142 1.4502850364409969 43 1928 40 1641 41 1762
1703 -0.77074471282089918 0.98868483780659433 4.4585049151468281 191 164 111 1.6903662720784467 39 1412 42 2011 40 1639
1702 -0.34258324275625035 0.77720067558634698 3.8515321810889707 69 70 72 0.65435323922214295 43 1697 40 1635
1701 0.76342187716529575 0.8208294812935143 4.5642453642162453 178 151 108 2.0579721187410258 39 922 40 1633 41 1624
1700 0.62965566142344398 0.78415966780068458 4.5129306463792469 112 111 107 1.7920325230066425 39 1391 40 1630 41 1753
1699 0.62624398316287655 0.67367291452039102 4.1103881871946006 128 127 125 1.184030448452674 39 1165 42 1990 40 1622
1698 -1.8285585107490883 0.84117967167904373 4.3845457048545269 249 243 236 1.6933208008908827 42 1752 43 2035 40 1621
1697 -0.64267864167397448 0.67785135645652272 4.0453132778826104 96 96 94 0.5475522138486143 42 1984 40 1617 41 1609
1696 -0.64509531649432206 0.5914423317475781 4.0394629509709796 92 91 87 0.90655859060727695 42 1974 40 1611 41 1597
1695 -0.60748142394338478 0.53923481486510705 3.9718594124657223 83 83 83 1.1390230561810428 42 1968 40 1605 41 1588
1694 -1.0652847968252355 0.64723341862828998 4.6032199264820948 110 111 115 1.169315002404169 39 1156 40 1602 41 1734 44 1866
1693 -0.39285275621148863 0.39235609305196195 3.6700941395345792 130 130 122 0.85683351937093555 42 1948 40 1591 41 1336
1692 0.25849144257372042 0.31801133840922347 3.7666589038691787 17 19 18 0.44582988931077283 42 1935 40 1579 41 1316 42 1694
1691 -0.048642593576428333 0.13443990192047134 3.5250392450082857 212 213 208 0.28095588009049122 42 2093 40 1544 41 1708
1690 0.66525735579662648 0.082060134637554516 4.4342179342334624 103 100 93 0.20087625766222725 38 1217 40 1529 37 87
1689 -0.57002536132388359 -0.050955212477169491 3.9847878162192671 145 141 132 1.2259753577152452 38 1236 40 1495 37 853
1687 -0.2483357287001578 -0.31162138372704207 4.0282104577554847 132 131 126 1.197259567786616 43 1747 40 1476 37 1130 44 1633 35 713 45 1151 34 480 1 1369 33 831 32 590 31 586 2 1292 3 961 48 1250 4 1286 7 965 6 1018
1686 -0.2244906778010167 -0.73017626649427392 4.2831704369735988 239 236 229 1.3765348378852975 43 1734 40 1457 44 1395
1685 0.56507216075693611 1.1841492278107431 4.4977171404437968 150 120 70 1.184868583141552 39 1225 42 1799 40 1441
1684 -0.73761991428949736 1.2346000609104437 4.4889082584809499 148 123 88 0.61184897427907436 43 1952 40 1440 41 1431 42 2029
1683 -0.73681506433292854 1.2031075422334039 4.4652882084016268 130 102 55 0.7792328433323511 42 1793 40 1438 41 1426
1682 -0.068301604174485511 0.68423081704816147 3.6587246889866152 109 109 109 0.55522828191909002 38 1085 40 1407 37 994 35 253 45 855 30 103
1681 -0.78860887350387743 0.82589850349509331 4.3104744439954583 207 196 190 1.675618502919787 39 1190 42 1761 40 1401
1680 0.44122194051987129 0.54748005151361467 3.7974596180363025 132 134 133 1.5587841905294324 39 1150 43 1657 40 1373 41 1605
1679 -0.97551257247597911 0.69824954159889807 4.6088838613170253 95 95 96 2.0773631491148667 39 897 40 1363 44 1288
1678 -0.011904093814016841 0.47002022744925687 3.5224745865137215 31 30 28 0.40147404163360007 43 1650 40 1362 44 1571 45 808
1677 -0.14689561878675839 0.4518884350858472 3.4264282590988278 161 161 158 0.4236673605213806 42 1736 40 1360 41 1037
1676 -1.2075725414399126 0.56931151360514931 4.54746890299631 168 139 95 1.4306462914093874 39 870 40 1342 41 1004 44 1556
1675 0.74660324976282422 0.42037565038131952 4.4392168933500926 198 197 192 0.34284359685592863 39 802 42 1941 40 1332
1674 -0.61452149093053587 0.41459529948156049 3.968861540846806 99 98 94 0.8718252750837544 42 1703 40 1329 44 1718
1673 1.0454024795036672 0.42908027708469759 4.7758699609461095 181 155 111 0.97050123703702995 39 1117 42 1697 40 1327
1672 -0.64830432873047517 0.29636523170311274 4.0050931707181254 71 72 71 1.134187226679984 39 1109 40 1310 41 943
1671 0.23839313611662843 0.21147905470669412 3.7849592792087821 10 10 8 0.29423615300157063 42 1672 40 1301 41 929
1669 0.078441493440831664 0.12613765478897979 3.5155826178296237 112 111 107 0.15401840302129902 42 1646 40 1281 41 1266
1668 0.031348770260873085 0.10370932966928409 3.5299018430579099 159 160 155 0.67523561570497415 43 1552 40 1269 41 1257 45 720
1667 -0.85121970656608181 0.14605667381956672 4.302034014189287 117 105 91 0.28010610156172594 42 1199 40 1263
1666 0.19828586625952735 0.055406529419868844 3.8313075274994044 69 69 67 1.0773591028808178 42 1626 40 1260 41 1246 11 669
1665 0.14990478196414983 0.041092312612142391 3.541553395748783 152 154 153 0.36017784494196708 42 1628 40 1259 37 802
1664 0.22252471647997379 -0.30876174561142722 4.4667594934553412 109 112 121 1.4234978829591267 39 645 40 1215 41 1187
1663 -0.050755374251329075 -0.50223190788466987 4.2794987272878986 114 117 117 1.3415734228180662 42 1827 43 971 40 1205
1662 0.23607013939155383 1.3090252211525271 4.5480400542560186 131 131 129 0.58587705691823555 39 979 40 1191 41 1156
1661 0.23607013939155383 1.3090252211525271 4.5480400542560186 131 131 129 0.58587705691823555 39 978 40 1190 41 1155
1659 0.086041328853044372 0.81581046588229678 3.762846254135392 144 143 139 0.62298023672921632 39 944 42 1485 40 1170
1658 -0.18009103827657846 0.79176145347265814 3.7300869514953883 91 91 91 0.32350186766477634 42 1479 40 1166 41 1116
1657 0.64552109238529753 0.92560799090728574 4.5679863635178606 85 77 68 0.49800021867945321 39 939 42 891 40 1164 41 1113
1656 0.13104757087613009 0.75583380084187624 3.6958447754830308 95 95 95 0.88000243948917378 39 938 40 1161 41 1411
1655 -0.70948360690904333 0.82980270239326726 4.1865887879664871 128 125 120 1.4984311448838044 39 524 42 1459 40 1143
1654 0.1361381267391564 0.63103748624038869 3.6792223105157107 84 85 85 0.93845578798594143 39 471 42 1758 43 768 40 1136 37 461
1653 0.37985565429440998 0.63297267083508557 3.9236003642935562 119 121 120 0.38609873300555164 42 1437 40 1126 41 1077 23 736
1652 0.68081862841726926 0.40840715930921473 4.2871290759227945 107 107 99 0.71818148094633882 39 306 40 1019 41 429
1651 -1.1150684488105944 0.49807971870340256 4.6097963170883771 134 134 134 0.80025211639413274 39 834 40 1010 41 979 37 1028 34 359 33 433 32 252 31 413 29 233 6 450 9 254
1650 0.67575302001811532 0.38342191725430547 4.3384139461611069 68 68 67 1.1815513544850273 38 342 40 1008 37 266
1649 0.42821413563709099 0.29754334370216085 3.8269896106364447 136 135 130 0.84515633740963869 42 1309 40 999 41 1310
1648 -0.63495419722325896 0.35856398904206294 3.9854718928470776 135 131 128 1.2851235121141995 39 808 42 533 40 994 41 959
1647 -1.0349856734027223 0.44338963676986781 4.6312833522526891 122 123 125 0.89150962869587702 39 816 40 988 44 1533 2 898
1646 -0.62092940234545391 0.34319649902718063 3.9746086615252261 89 90 85 0.38428090947214194 39 801 40 986 41 1309
1645 0.31735107196120316 0.12370955563188585 3.7516696490706374 106 106 104 0.27344575760175188 43 1132 40 936 41 889
1644 -0.36683296021400091 0.12543368115735415 3.8212410082839501 49 50 45 0.5829847082332178 39 191 42 1216 40 926
1643 0.040441164407154589 0.066970033515254407 3.536018001081497 139 139 137 0.19630590074164425 36 57 40 919 46 53
1642 -0.17431797737212026 0.061913107698077459 3.5059919359588889 95 96 91 0.97886216702050588 43 1115 40 913 41 198 37 832 44 1100 45 724 2 86 46 124 47 116 4 85 23 16 22 15 20 18
1641 -0.50846587123329012 0.06305280108518603 3.7898662219136305 77 76 74 0.25039768983249538 42 1183 40 904 41 859
1640 -0.045305934855498803 0.018750666317983319 3.5241032869701994 193 195 192 0.51147360520357632 39 710 40 898 41 851 44 1078
1639 0.20209373597592159 0.014556517556516336 3.8805481758756875 71 71 69 0.33485743247250466 42 1167 40 889 41 1232
1638 -0.19472966885143203 0.012320413274614096 3.506515485875437 211 211 209 0.56521725214728857 42 1613 40 887 37 822
1637 -0.91775782453874355 0.081431464132579831 4.6395532033123894 182 166 141 0.49601301235593609 39 1063 40 884
1636 0.30209330515375787 -0.0049889569573352268 3.8162536542603531 89 90 85 0.60236968054771267 43 1514 40 876 44 1447 48 696 4 64 7 454 5 490 8 486 6 588
1635 -0.066566562769977605 -0.01077668707835395 3.5185639627189533 117 117 117 0.81125133633945901 43 1516 40 873 41 839 46 64 3 45 1 40 47 71 48 106
1634 -0.87232131208057284 -0.0081047304676765495 4.5728574931396988 95 87 74 0.52382361003248301 39 702 42 1136 40 856
1633 -0.55874228274741078 -0.040757807874306308 4.0590559091114713 137 134 129 1.5082885818050371 39 98 43 1048 40 853
1632 0.054547396449645777 -0.081906048776911003 3.7694538932352168 99 98 93 0.26000398925347307 42 1587 40 848 41 818
1631 0.054547396449645777 -0.081906048776911003 3.7694538932352168 99 98 93 0.26000398925347307 42 1586 40 847 41 817
1630 0.47623414898131772 -0.2087316137830961 4.6423602592407143 17 20 14 0.8841323456592487 42 1104 43 1014 40 835 41 810
1629 -0.53078235818327157 -0.31486513708314051 4.5025147785835777 91 108 134 0.20908836504879039 39 1013 40 813
1628 -0.064613065676701317 -0.35842116813724373 4.0807988730009273 105 104 99 0.62992535168064145 42 1075 40 806 41 787
1627 -0.20618801390491392 -0.50408552478819602 4.0488284767827452 117 116 111 1.2055334948212 42 1061 40 797 41 775 10 336
1626 -0.21666741586014854 -0.71878127729032759 4.4889701650804463 103 126 167 0.93996107440257726 42 1049 40 791 41 765
1625 0.39584452839202128 1.306599796064202 4.5696989687785523 128 128 128 0.806470292449318 39 594 40 781 41 740
1624 0.43494695251869425 1.2871078750727092 4.5978591148088173 94 92 93 1.0856309233382053 43 918 40 778 41 737 44 931
1623 0.45682930600560834 1.2201802628483847 4.6061197610277649 124 124 124 0.61432220745715194 42 967 43 904 40 772 41 729
1622 0.077262254122764357 1.095096608247389 4.1342082595074912 134 134 134 0.33033782625197877 39 962 40 768 41 726
1620 -0.47569135382008698 0.83817447927492084 3.8460655499568088 85 85 83 0.6304665166537583 42 1477 40 740 41 684
1619 0.31021644332004256 0.81653842423672718 3.9723516438347493 149 149 147 0.41278004812237529 42 899 40 738 41 678
1618 -0.40379091154691982 0.78426465721714511 3.778882243655509 131 131 129 0.99568720180103776 42 884 40 724 41 663
1617 0.23989682825431102 0.74152874510395672 3.7565007448975378 137 138 133 0.52020359866875521 42 883 40 722 41 655
1616 -0.37332101417700791 0.70933323014256666 3.7145936392861261 170 170 172 0.41372996848883253 43 811 40 700 41 638
1615 -0.31156120426179296 0.69298591087904571 3.7490551701102635 78 79 83 0.30982810929332533 42 1456 40 686 41 1403
1614 -0.39345062725464225 0.66537455672769796 3.7088495164014557 126 126 124 0.73055089269339957 39 487 40 673 37 1012 44 1332
1613 0.015639417633831559 0.63024151848202514 3.6434583704847321 123 123 125 0.31895528897574682 43 775 40 672 41 601
1612 0.015639417633831559 0.63024151848202514 3.6434583704847321 123 123 125 0.31895528897574682 43 774 40 671 41 600
1611 -0.015480308444806775 0.59518365428652897 3.6452948598738542 109 109 111 0.40284508536168406 43 746 40 642 44 841
1610 -0.41356097411348058 0.61940694195970369 3.7347490865345332 138 137 132 0.7256824079777463 43 1366 40 636 41 574
1609 -0.31889829338755293 0.57309537955318357 3.666888367406322 101 102 104 0.53393197337291454 42 784 40 615 41 559
1608 0.3153991124718632 0.56997616902357862 3.8434873786714272 76 76 76 0.85547685227177739 43 675 40 612 41 1066 25 195 24 531
1607 -0.31629275589127592 0.56117433831611085 3.668667098578251 130 131 133 0.81011485429932384 43 706 40 606 41 556
1606 -0.32817605255629057 0.55868746853035789 3.6488716838831454 95 96 98 0.40058385410584996 42 778 40 605 41 554
1605 -0.36054278639389886 0.55774619132932335 3.6486919655088643 72 72 74 0.65715581322823036 42 776 40 602 41 552
1604 0.44150154464514801 0.5253375439971576 3.7571339633066514 50 50 49 0.96243473803159807 43 649 40 597 41 540
1603 -0.62439512073869452 0.57775198950860163 4.0181862816118326 147 146 142 0.81174515363292699 43 650 40 559 44 1286
1602 -0.0002606072592874531 0.45905318205175566 3.5968218656914583 50 51 53 0.63529601876720165 42 1388 43 1301 40 546
1601 0.15729577244276088 0.44021768345156798 3.5406389274323713 26 26 28 0.6087933802244726 42 709 40 545 41 504
1600 -0.58749645523039629 0.53494832552102167 3.9658861914420136 149 148 144 0.82935989068055027 43 618 40 532 44 761
1599 0.1253544081614405 0.44112975335982157 3.6496821130493418 35 36 38 0.40068101812121065 43 1283 40 528 41 1020
1598 -1.0691624859933644 0.61189838165096111 4.6039539631332094 115 115 117 1.072747017574275 39 409 40 502 44 1259 43 592
1597 0.41665621381946494 0.40691393434867734 3.7533936016527343 157 154 149 0.58020247043741591 42 658 43 538 40 495
1596 -0.57167857111560072 0.466612505220035 3.9330372459223097 134 133 129 0.54784330538208004 39 375 40 482 37 504 44 1241 33 195
1595 0.37520092257409593 0.33866904268356068 3.7163096166016674 157 156 152 0.69775646193740426 42 1329 40 439 41 974
1594 -0.11879153977037483 0.32813011398107217 3.441675194615438 0 23 56 0.34628006326480731 39 312 40 437 41 415
1593 -0.32852931208068398 0.35107656665319226 3.6575566511009265 81 81 83 0.464074944888059 42 575 40 422 41 410
1592 -0.58539828216295797 0.27442061040441218 3.9251162428795721 149 148 144 0.38436583935994345 43 418 40 343 44 506
1591 -0.0073481493639568291 0.19295811244155547 3.4552418519334696 181 182 176 0.52628629276863237 43 393 40 335 41 339 44 465
1590 -1.0223768356674852 0.34310039252027941 4.6556028505121558 87 87 89 0.77562794740958108 39 282 40 332 44 480
1589 -0.051495679980679991 0.18339853432600736 3.4614669294732598 201 200 195 0.1424969055833166 42 435 40 324 44 458
1588 -0.080190838207660264 0.16668494757076782 3.4782727686934152 93 92 90 0.22054411845706565 39 220 40 306 41 305
1587 -0.080190838207660264 0.16668494757076782 3.4782727686934152 93 92 90 0.22054411845706565 39 219 40 305 41 306
1586 -0.029738912449832709 0.16082682460390085 3.4844216981983229 203 203 195 0.32183260652460582 39 215 40 302 41 302
1585 -0.14353373416668827 0.16289580894768024 3.4919183595468621 111 110 105 0.1473051016638588 43 351 40 296 41 301
1584 -0.59419917703818925 0.20753813964294215 3.915790786378992 78 79 76 0.1765380445713324 43 348 40 286 41 303
1583 -1.0109576877038062 0.26708631704240904 4.6615556325392653 122 97 67 0.72156325004186272 42 371 40 272 44 406 45 375 9 530
1582 0.62124673652517537 0.15998930590043903 4.3494640953299539 84 87 92 0.46906724923261217 43 270 40 263 37 131 36 59
1581 -0.35839690980178868 0.14127798526341895 3.7991292860132879 40 39 37 0.26952012893852878 42 345 43 287 40 243
1580 0.040280925620460518 0.084451385530283293 3.5393104599668459 87 87 85 0.29640128016595862 43 267 40 227 41 220
1579 0.33552842581255538 0.081343388702820804 3.7584942155430303 136 135 131 0.36650275287545853 42 302 40 224 41 215
1578 -0.47550422309076207 0.081824142106806927 3.7598743368303458 43 43 43 0.10702132546376356 38 941 40 204
1577 -0.44113841849811719 0.07641563253554709 3.7672200185652089 69 69 69 0.35064744389397223 39 159 40 199 41 188
1576 -0.20136574583352984 0.049106534666168378 3.500567928489942 190 190 190 0.38029993712381155 43 235 40 196 41 182
1575 0.28395749229134798 0.039251232099399416 3.7967239279229341 115 116 111 0.84992494075792457 43 209 40 194 41 178 48 26 5 66 8 92 6 97 9 106 10 153
1574 0.46193325212370573 0.038602143581425108 4.3031155521959112 81 85 88 0.8038183927504563 39 119 42 232 40 185 41 171
1573 -0.17251762836445153 0.013983127071476673 3.5041354013688459 201 203 200 0.39177209413274977 43 206 40 173 41 162
1572 -0.35670567054202462 0.031375753706783589 3.8041414624631442 134 133 129 0.49978207240742473 43 201 40 168 44 270
1571 0.48768167247316246 -0.020810287301766778 4.1921156272333437 69 73 74 0.46980424017686939 39 683 42 204 40 150
1570 0.31122380177240444 -0.057504913383739316 3.8831595645656454 106 107 102 0.73006190314005792 43 1040 40 130 41 133
1569 0.089048626379177959 -0.086896283102359154 3.787381589827381 94 93 89 0.57550280618224592 42 163 43 131 40 122 41 116
1568 -0.098135730391849849 -0.091699269942561043 3.7277072402296874 113 114 110 0.81147088198644235 42 158 40 118 41 113
1567 -0.098135730391849849 -0.091699269942561043 3.7277072402296874 113 114 110 0.81147088198644235 42 157 40 117 41 112
1566 -0.1988941181624013 -0.10449494283041105 3.774268682549824 142 141 136 0.40400387880777755 42 146 40 110 41 104
1565 -0.78920116238608351 -0.093068703096417196 4.526041797634071 84 73 60 0.4924548005301464 43 117 40 108 41 107
1564 -0.12041813630729988 -0.15152323510369989 3.8134008605494989 135 134 129 0.74674823905689958 42 126 43 105 40 99 41 99
1563 -0.86734513812975234 -0.15605034706869983 4.6069746438201946 159 146 132 1.2604811108991116 43 95 40 88 41 97 44 115
1562 -0.26627178906600513 -0.39278748363547744 4.0708505376970221 104 103 98 1.233239774200626 43 45 40 40 37 33 36 32 44 970 35 59 45 657
1561 -0.42766041966259338 -0.40141810018872326 4.2524882157101143 92 117 152 2.0348819236663758 43 42 40 39
1558 -0.24495390598386141 -0.46651886874602577 4.0619304902988738 104 103 98 0.81427257974171885 38 832 40 26 35 41 2 984 46 740 3 719 47 590 48 1061 4 1057 5 785
1557 -0.14430928618084832 -0.57636122034825954 4.1516830829855955 135 134 129 0.77356453454322838 43 14 40 11 41 8
1556 -0.11230438145450522 0.46030594788231255 4.8446536747191375 70 69 64 1.7797744814226741 36 1340 39 1775 48 1648
1555 0.27773129790326279 0.8643608713483022 4.0721575194612658 144 143 139 0.056648836407600524 42 2435 40 1994
1554 -0.18966968003903306 0.054157389419402124 3.5050681427816817 194 194 191 1.402398793007968 43 1539 36 555 38 1246 39 1057 42 1891 43 1800 38 1467 39 1300 40 1261 40 1526 41 1247 41 1498 37 1166 44 1488 35 90 45 998 1 698 30 450 32 13 29 12 28 8 2 639 46 748 3 448 47 573 48 778 4 90 7 460 8 480 6 86 9 398 27 443 26 392 25 472 24 440 23 577 22 630 21 14 20 9 19 19 18 21 10 463
1553 -0.34899562957459718 1.5163498601268397 4.5325623245364683 217 216 211 1.7412915607049666 42 2451 40 2011 44 2165
1552 -0.97602947843023269 0.46793312296536471 4.3184523052256134 90 91 93 1.1694776843177943 42 2445 40 2006
1551 -1.1820194078197233 0.11988989474276153 4.6412794766721843 224 220 209 1.9315520829663768 39 1758 43 2291 42 2436 40 1997 41 2056
1548 0.13109462749927561 0.13435508100061924 3.5514757540736941 166 167 160 2.1153721220862804 38 1857 42 2422 40 1980 41 2034 37 1718
1547 -0.98020097797271877 1.1953143173784406 4.6787432772936137 235 232 225 1.3069458516258288 38 1846 39 1718 40 1961 37 1755
1546 -0.38304866799491993 -0.50746886764497312 4.2666780386862175 1 48 110 1.6420568113919161 43 2226 42 2369 40 1939 41 1947
1545 0.51720674672745459 0.91629559478081546 4.4299258910037569 14 46 93 1.1795577478205459 39 1658 42 2359 40 1913 41 1973
1544 -1.701788833928898 1.0856051100064548 4.6530809611749824 230 226 214 1.7603922918999999 39 1688 42 2357 41 1974
1543 0.35648394775648362 1.1525023310453559 4.5120388555038486 97 97 99 1.7638704554562956 43 2172 42 2335 40 1917
1542 0.45490018368684504 1.1075555619979716 4.6177293403137085 92 92 94 0.45535047144553137 39 1660 42 2334 40 1915
1541 0.21492800887709543 0.38597176164077446 3.5148305183591373 123 124 119 1.7873623224068766 43 2152 42 2322 40 1867 41 1961
1540 -0.19844243349586996 -0.54999806289868758 4.1001984095786694 91 90 86 1.2166125605362053 39 1635 42 2306 40 1890 41 1917
1539 0.54954788725941084 -0.2562218486394563 4.6864870628736695 100 96 93 1.8490402263148495 38 1424 39 1615 42 2256 41 1919
1538 -0.23178197652318019 1.1884080346835806 4.2945293445126298 204 200 197 1.6595572160514422 43 2117 42 2245 40 1884 41 1862 41 1912
1537 0.90410517874726759 0.91642686365589721 4.5356577813207481 159 127 78 1.6526082055152118 39 1590 40 1828 41 1854
1536 -0.40910189330883756 0.064780610107028291 3.8670323544861631 40 41 36 1.664096294061155 39 1556 42 2193 40 1783
1535 0.48945598504282112 -0.24860367822906623 4.6414651353217362 137 109 69 1.2513356840387277 39 1449 42 2187 40 1775 41 1797
1534 0.34522422340963094 1.3837835443670516 4.5661683331388252 119 119 119 0.63117310569335494 36 1042 42 2175 2 751
1533 0.34517793034412325 1.3832852374014273 4.5661363602496872 119 119 119 0.60876257984139459 36 1041 42 2174 33 938
1531 0.65508904874452845 1.049520812070859 4.5798779919599548 167 137 77 1.1050276812155111 39 1524 42 2160 40 1754
1530 0.58662265356466581 1.0209755307452195 4.6418021685956523 136 104 49 1.0831183649908123 39 1523 42 2153 40 1749
1529 0.55870328554166837 0.9724317376732734 4.5150080437072111 166 154 134 1.7017086926271554 42 2151 40 1834 41 1906
1528 -1.2475883221991872 0.64791362008915865 4.5487755760888788 187 156 91 1.0727319346109581 38 1558 42 2125
1527 -0.68738231640306535 0.45003391647071084 4.0692448434155235 139 136 127 1.4837222954657068 43 2149 42 2122 40 1802 41 1821
1526 -0.37536801103001005 0.23676187329495568 3.6637084312930774 124 124 119 0.37023619891386966 43 2006 42 2106 40 1711
1525 0.52719040654601046 0.2169373596177448 4.4053882794112358 35 37 34 0.88776770083197021 39 1473 42 2099 40 1703 41 1712
1524 0.23025664393018294 0.13016789905297735 3.8005670316115561 4 4 3 0.63278126608303942 39 1472 42 2091 40 1699 41 1510
1523 -0.21940488638075095 0.029820788421402452 3.5063053888566498 181 180 176 0.58707265167058065 38 1461 42 2081 40 1516 37 1367 35 716 45 1168 34 477 46 751
1522 0.39703573362656291 -0.10174284224602655 3.97306191558136 108 107 102 0.58890172229325566 43 1761 42 2067 41 1684
1521 -0.7767731523540049 -0.062465072225744947 4.4914972495083436 85 59 28 0.76816457900186175 43 1974 42 2066 40 1683 39 1458 41 1686
1520 0.51410863695033115 -0.18464387626943993 4.6430028962592482 18 47 88 0.94751684566721084 43 1755 42 2064 40 1677
1518 -0.11434484212731899 1.3188262221253504 4.5634930299998633 72 74 77 1.1935818917828382 43 1955 42 2041 46 821 3 889
1517 0.31668841266133724 1.2056194397209294 4.6036760233054705 117 121 120 1.2187468081561343 39 1226 42 2031 40 1183 41 1430 26 630 27 659
1516 0.16791188219187886 1.0945725256901919 4.2386816454775564 126 124 125 0.033138378842722395 43 1947 41 1782
1515 0.51827603251033516 1.0519607585268342 4.6806997229464979 57 50 42 0.65959655844962228 39 1410 42 2022 40 1430
1514 0.96717707989940327 0.934363613171317 4.5945988806161422 16 16 16 1.6239552787977203 43 1695 42 2015 9 629 13 976 12 910 11 1101 10 522 40 1643
1513 -0.19867613927976374 0.71667181427955473 3.7304169643321305 106 107 107 0.5757571945765253 38 1557 42 2004 41 1626
1512 -0.33615263956781816 0.50431000617186927 3.6196456439104043 65 65 65 0.49093652090075374 39 1370 42 1976 40 1607
1511 0.26244011319933558 0.48742698777332061 3.7986324546455692 54 56 55 1.2135202346474296 39 1135 42 1970 41 1590 26 694 25 892 24 898 23 1045 22 1107
1510 -0.60711941448371876 0.53783158812960152 3.9694211418800869 81 80 77 1.6240021588901188 39 1366 42 1967 40 1604 41 1589
1509 0.60809387746455634 0.42147184242737956 4.3034996152161664 95 95 95 1.0866862300090192 43 1863 42 1945 41 1333 9 639 10 764
1508 0.60822334918962273 0.42151114043838617 4.3031109277744175 95 95 95 1.0185011180378827 43 1862 42 1944 41 1332 9 640 11 729 10 765
1507 0.61552611455754291 0.36627831581579401 4.3447319715748689 110 110 108 0.42535269621605992 38 1502 42 1934 41 1564
1506 -0.37271492977268189 0.26453719399178227 3.6372515001675496 21 20 16 0.63712353737547778 39 1342 42 1927 41 1301
1505 -0.13085936652428617 0.18895471332983485 3.4659005224684099 188 188 178 0.62567661233963512 43 1840 42 1914 40 1559 10 687 9 584
1504 0.51940668495364717 0.18965658026514409 4.400482084592384 45 45 47 0.73322242250015857 39 1311 43 1810 42 1906 40 1550 41 1523
1503 -0.12745888415284454 0.12747367902492077 3.5196247291199221 146 145 141 0.37609327887325128 43 1816 42 1903 40 1540 41 1511 44 1672
1502 0.53644701227195035 0.15933475705816397 4.3909728499996241 105 109 110 0.32568765856922494 43 1805 42 1898 41 1512
1501 0.50633824612087008 0.088844468132442705 4.3589983442814688 94 98 99 1.1996207292529921 39 1301 42 1892 40 1530 41 1501
1500 -0.4714690137042527 0.066353936622085469 3.7589543595714852 59 58 54 0.98909976025884006 43 1798 42 1883 40 1518 41 1700
1499 0.48620972894350661 0.022683918438364561 4.2818902335863989 39 40 44 1.1855798893578884 39 1286 42 1878 40 1512 41 1491
1498 0.48621231017275957 0.022902996242537887 4.2828039615950155 39 40 44 1.4954085672683044 39 1285 42 1877 40 1513
1497 -1.0660603642945818 -0.047858706241330332 4.6044683586804531 188 161 108 0.33090224061200918 39 1276 42 1852 40 1493 41 1687
1496 -1.4202532767403135 -0.34197613300343133 4.4651150872174252 233 230 221 1.561351695784718 39 649 42 1834
1495 -1.4132058968235452 -0.34028124104091168 4.4463767101333804 233 230 221 1.2293419690062264 39 648 42 1833 40 1470 41 1673
1494 0.026885943885471376 -0.38459358075547795 4.3764375826972657 87 90 89 1.5887447622652189 39 1251 42 1832 40 1469 41 1671
1493 -0.36150153010165381 -0.50584491502311713 4.2716068857843714 13 40 84 1.3106696376953142 38 1420 39 998 42 1826 44 1803
1492 -0.15185898402897163 -0.54998090985742032 4.1126934696210755 142 141 136 0.64659918210226963 39 992 42 1825 41 1446
1491 0.26282563338220694 1.2734354453975987 4.5799116919162399 112 112 114 1.1146031273167463 38 1388 42 1808 28 677 23 838 17 171
1490 0.49337853203029425 1.2529847537761278 4.598116795778604 101 100 98 0.89726898799218424 43 1723 42 1805 37 1054 45 887 1 828
1489 0.62210711710752364 1.0388770727028236 4.5853041936522985 213 185 148 1.2058451460948201 39 1204 42 1781 40 1431
1488 0.42541707194152556 0.93872895989180194 4.3276517071271003 119 121 124 1.1009774639533514 38 1100 43 1701 42 1775 40 1427 39 1405 41 1640 37 551
1487 0.60142245453134358 0.91058472174535621 4.515494504515944 78 75 70 0.74288830368836589 39 1398 42 1773 40 1416
1486 -0.31762614726320687 0.6750159572245259 3.7352423393425136 119 123 126 0.73225111639357809 43 1689 42 1764 40 1399 41 1399
1485 -0.67574986355439748 0.7179263806966919 4.0937822171350646 134 131 126 0.53087709330140742 39 1184 42 1751 40 1384
1484 -0.60863543659263863 0.67355692605031914 4.0083978137380516 140 135 131 0.55132796617700219 39 1178 42 1747 40 1380
1483 -0.61029444744426398 0.67446049932152841 4.016032974756266 140 135 131 0.66463417951493264 39 1179 42 1746 40 1381 41 1383
1482 0.016004349490672067 0.56817055053533716 3.6440740971309409 135 136 138 0.47146231283650752 43 1667 42 1744 40 1378 41 1379 37 959 44 1305 35 188 34 101 33 104 29 98 25 117 23 188 22 153 20 119
1481 0.015896808156542069 0.56812003566112901 3.6445653518584682 135 136 138 0.53621133130998788 43 1666 42 1743 40 1377 41 1378 37 960 34 102 33 105 31 106 30 80 29 97 28 84 27 70 26 73 25 118 23 189
1480 0.41911548905149099 0.54206386559140118 3.7633703063639836 136 138 135 1.1847617576928076 43 1323 42 1742 40 1107 41 1060
1479 0.58184064970796867 0.51930153905116561 4.1080708226302081 92 91 86 0.70186244790375996 39 851 42 1733 40 1078 41 1035
1478 0.51391509934923829 0.45688483204253477 3.9052632583586266 34 34 34 0.99974469759304974 43 1626 42 1723
1477 0.49573702563372857 0.45422906559800619 3.8963981097860585 132 131 126 0.57806277037576892 43 1269 42 1721 40 1059 39 352
1476 0.029687339507400819 0.40957955400312068 3.6487968814606351 43 47 50 0.63639841815638698 43 1267 42 1716 41 1346 38 1303 37 926
1475 -1.1234490752939128 0.57850499600846372 4.5920493269190121 112 95 71 1.2856542300790115 39 1142 43 1627 42 1713 40 1344 41 1347
1474 0.24882667440050918 0.26891274961165018 3.760849550650943 7 7 5 0.65069285580752922 39 1103 42 1687 40 1317 41 953
1473 -1.0956252296363713 0.401440835666864 4.628811935596036 118 120 119 0.73694457484619269 39 805 42 1681 45 1084 34 319 33 401 31 383 2 1106 48 963 4 946 5 392
1472 -0.61229666625992707 0.24506773744171254 3.955515789624902 139 138 133 0.26293021125370636 43 1575 42 1667 40 1296
1471 -0.0038052740091500891 0.17058759268694465 3.4712419856893884 213 213 205 0.44766369963211888 43 1572 42 1665 40 1293 41 1286 44 1512 48 738 5 24 4 22 8 442 6 21 9 21 12 21 13 30 11 571 10 446
1470 -1.0227162742301725 0.28406652550254796 4.6706462909087314 59 47 28 1.2025709080920641 39 1100 42 1650 40 1552 42 1909
1469 0.1099319104990911 0.12477172197522426 3.5406013782112438 169 168 163 0.47782348908849004 39 741 42 1644 40 1279 41 1263
1468 -0.83531574409098308 0.18206945743967937 4.2761970038927908 126 123 116 0.71436069047794648 39 1316 42 1635 40 1268
1467 -0.43386977170437624 0.11353319713792659 3.7397482955727561 80 79 74 0.61618700021841488 38 945 42 1631 40 1266 44 1108 45 227
1466 -0.19484597945298868 0.011954685429534534 3.5056810538082908 191 194 187 0.67222586870518741 36 549 42 1612 40 886 37 821
1465 -0.24213018477268017 -0.069770556578492363 3.7491512368426148 111 108 103 0.59322215669429024 43 1767 42 1588 41 1213
1464 -0.88649001483001555 -0.052281523527664645 4.6262976264718159 58 45 35 0.4460963850727932 39 1039 42 1583 40 1229
1463 0.49993985543850589 -0.20815039175312022 4.6528040686647634 106 103 98 1.0445302800039009 39 661 43 1479 42 1576 40 1221 41 1199
1462 0.52712660112910659 -0.23358195480835073 4.6833503464333068 107 104 99 0.91074903814303632 39 658 42 1574 41 1197
1461 0.34640156614040918 -0.35171281815359734 4.6232587811483201 181 179 173 0.97276646300567926 43 1468 42 1559 40 1213 41 1184
1460 -0.021982480085512436 -0.38585865756289373 4.1953583174888722 97 96 91 0.63004578178100401 39 636 42 1553 41 1179
1459 -0.021982480085512436 -0.38585865756289373 4.1953583174888722 97 96 91 0.63004578178100401 39 635 42 1552 41 1178
1458 0.20039215212061315 1.5292936695156747 4.5367119568775616 112 113 108 1.8738788056334503 38 823 43 1455 42 1541 37 761 44 1394 35 424 47 280 48 321 4 792
1457 0.40624479761534665 1.3742256488033648 4.5755443723791833 111 109 110 0.89087035292951022 36 416 42 1532 41 1162 37 697
1456 0.17156341990726612 1.3642788863190245 4.5564188755216959 97 97 97 0.45553814382195013 36 439 43 935 42 1529 37 726 45 592
1455 0.35521271853346692 1.3479048970153957 4.5707359612896683 93 93 93 0.67925539431456428 36 419 43 933 42 1527 41 743 37 695 45 557 1 382 29 399
1454 0.15736579003635906 1.2987219342619611 4.5679967653483526 97 97 97 0.40772590712265039 38 1151 42 1522 37 703 45 561 34 363 1 889 32 282 23 527
1453 0.4073504159548505 1.2368361678682578 4.60538733842262 129 129 129 0.40583677432149906 38 735 42 1516 40 1185
1452 0.23095890511213946 1.2292110647368018 4.5572158406029191 120 120 122 0.83079478052129507 39 1229 42 1512 41 1144
1451 0.42350231389147253 1.20017815477187 4.6068893940857052 113 113 111 0.50619325791143155 36 371 42 1509 41 1141 37 630 25 439 24 404
1450 0.42371805034656895 1.2000306865292441 4.6072142932823388 113 113 111 0.5884332119360105 36 370 42 1508 37 629 24 403
1449 0.55327687539913251 1.1564458136437825 4.6347092963184995 177 157 131 1.4158614962477829 43 1423 42 1505 40 1179 41 1138
1448 -0.65922228290488505 1.1263442793586067 4.4868531160122505 75 69 58 0.83617317363946642 39 961 42 1497 40 1432 41 1415
1447 0.37476538152825423 0.98422353131520979 4.3064578018750534 120 124 133 0.37232363557766707 39 544 42 1493 41 1125
1446 -0.18056179436150188 0.79207566331614232 3.7323603396557719 82 83 82 0.39859832983750987 43 1408 42 1478 40 1165 41 1115
1445 0.30395103411713492 0.79460340458454126 3.9287464840409516 147 146 142 0.5280619048716052 39 519 42 1473 40 1159 41 1111
1444 -0.45339412236832988 0.79384442257227628 3.8034730662582601 107 106 101 1.082886691371008 39 943 42 1472 40 1156 41 1109
1443 -0.0036374244700229782 0.73085738805213751 3.6518406381228314 107 109 108 0.43304045718970208 43 1403 42 1469 40 1155 44 1353
1442 -0.35530013949489569 0.71480158798996829 3.7145081372943798 95 95 95 0.69419342879249513 43 1392 42 1461 40 1146
1441 0.96740587213297169 0.75676083071938072 4.6273103764112573 193 177 161 1.7431701272389386 39 446 42 1443 40 662 36 192 45 797 33 158 32 441 31 679 30 210 29 245
1440 0.71726842245497457 0.7635492034737752 4.6275355298450442 64 52 38 0.5677477100788435 39 454 42 1441 40 661 41 1087
1439 -1.7177153428941534 0.81261163103494805 4.2397749572715222 232 226 215 0.73922005571978977 42 1438 40 1387
1438 0.98707202269572114 0.70490921527652994 4.6767785099548593 142 115 70 0.55967680329098746 39 889 42 1430 41 1380
1437 -0.11126683989433764 0.54950540270330706 3.6505380597615398 39 39 41 1.1034284466868545 43 702 42 1422 40 1105
1436 0.22376347572890543 0.53283694888632549 3.7392650804470384 71 71 71 0.14952410701478255 43 658 42 1415 40 596
1435 -0.32630077677352975 0.5390117863345244 3.653788689131122 104 105 107 0.3303773050584301 43 1331 42 1414 41 1056 37 492
1434 -0.085389231828945936 0.4809767342110432 3.5183532094134553 30 32 31 0.53484409155320611 39 403 43 1321 42 1407 40 570 41 1046
1433 -0.32185840294362461 0.50183752873415455 3.6197682853053963 119 119 119 0.42132481169898428 43 1318 42 1398 40 1086 41 1044 37 478 36 281
1432 0.054330491791907326 0.46014826496026306 3.5346917946257563 30 32 32 0.75917277948187578 43 1310 42 1392 40 1082 41 514 44 1266 45 799 46 145 47 566
1430 -0.093727008706436854 0.46967148221789257 3.6309973453823692 90 95 98 0.25000635746650379 39 859 42 1387 40 1071 38 1018
1429 -0.077970763921165892 0.46840158426612183 3.6333385196479768 100 106 104 0.18980734008099101 38 477 42 1386 40 547 41 510
1428 0.037857352911572384 0.45052390617373234 3.5792730208250627 53 54 54 0.55020830352178063 39 378 42 1384 40 1068
1427 -0.01255132604001051 0.45721730156644513 3.6440205534691308 117 121 124 0.37564698243545247 43 1295 42 1381 40 1065 41 1028
1426 0.5060677866192248 0.46968710828851951 3.9128062433332129 134 133 128 0.51551016151720852 43 574 42 1376 40 1064 39 361
1425 -1.3519090213484319 0.60116948095439449 4.4121529020961132 172 146 98 0.30397976947444671 39 883 43 1297 42 1363
1424 -0.99359600115363023 0.60709119823498714 4.5772251158208768 71 75 76 0.030518601959728546 39 407 42 1358
1423 0.43834040915754829 0.41136587369309519 3.7888910964183697 128 127 123 0.79445068437735111 43 533 42 1355 40 496 41 1000
1422 0.11775981674548995 0.36749799274003292 3.5911533037124728 51 67 90 0.53743923720748277 43 522 42 1343 40 1029 41 989
1421 0.35532860577197006 0.33653074504165709 3.711365444465438 154 155 159 0.94336400537401344 43 1222 42 1325 40 1016 44 1180
1420 0.74440038910145567 0.37733389351756308 4.4437574807853197 206 203 196 0.92174843939042272 39 792 42 1311 41 1317
1419 0.41385418533001428 0.29563528269773276 3.7702506671693934 96 95 91 1.2604884293486858 39 274 42 1310 40 390 41 958 26 439 25 522
1418 0.38168643861268009 0.28826353754800249 3.7394100928198548 160 159 152 0.50905887551366757 43 452 42 1307 40 387 41 957
1417 -1.1048405101111223 0.45528529660963268 4.6200113030980097 92 96 95 0.97585173375743073 39 819 42 1306 40 997 41 965 44 1191 48 966 4 648 7 363
1416 -0.35392034485535573 0.28742160931339766 3.6562586357497819 49 51 50 0.42509009967337708 43 459 42 1300 40 374 41 369
1415 -0.35392034485535573 0.28742160931339766 3.6562586357497819 49 51 50 0.42509009967337708 43 460 42 1299 40 375 41 368
1414 -0.32797881739754453 0.28569026897404853 3.683542411547259 50 50 49 0.15092937319205094 43 1203 42 1298 40 370
1413 -0.62550237365428574 0.30062180617658879 4.0001207979707303 118 117 112 0.93275752359266428 39 1113 42 1291 40 1312
1412 -0.61482695946462318 0.29695506573212577 3.9524682519119771 118 117 112 2.0953183026126836 39 1112 42 1290 40 1313 41 946
1411 -0.19913790043767574 0.20289321981402242 3.4997890078777507 202 202 194 0.85483331117000572 43 1577 42 1277 41 333 44 1519 45 759 2 653 1 1024 46 526 3 451 47 593 48 799 40 337 4 738 7 457 5 483 6 568 9 38 10 447
1410 0.029659294794068626 0.17788429576745834 3.4615491427218408 85 84 80 0.56691682562091184 38 292 42 1272 41 321 37 185 44 1144 46 74 47 64 48 96 43 375
1408 1.0864035673329857 0.25048567612543815 4.6998516512813016 158 127 81 1.2657875080758128 39 755 42 1267 28 183 10 316
1407 -0.1116167746986762 0.17076988290883469 3.4830669036934956 191 190 183 0.76270832211450812 38 308 42 1263 41 919 37 222 11 26
1406 -0.21086631964157523 0.15466262858766502 3.5043711348371445 172 171 166 0.64714897892645362 38 310 42 1249 41 285 37 237 45 212 1 93
1405 -0.0060870076564669817 0.13480248458626162 3.4997356799253141 105 102 97 1.289011985091399 39 200 42 1245 41 894 44 1123 45 155 2 32 46 497 47 811
1404 0.081791424010769248 0.10367252946556163 3.5339161030827095 136 137 132 0.72377625264047163 38 201 42 1233 37 124 44 1107 45 131
1403 0.63591381096132804 0.11665396382483267 4.3573746617965643 122 119 113 0.1836367394073373 38 154 42 1214 41 230
1402 0.090770250920120241 0.073026199817913307 3.5464822843580559 97 97 97 0.43499429079642643 39 156 42 1211 40 218 41 875
1401 0.040542520241806608 0.067090702128071084 3.536124088560888 107 109 108 0.19620974494463453 36 56 42 1205 40 918 37 110 46 54
1400 0.036112660326009537 0.036756977301741996 3.5325859566248061 148 148 146 0.2811688456221661 43 1095 42 1187 37 89
1399 -0.12569369187157722 0.018161712117241071 3.510451721456981 94 94 91 0.21597373094802708 38 157 42 1176 40 182
1398 -0.14245355694182882 -0.027517009024081319 3.5180224883596538 158 159 153 0.59057604004622177 43 176 42 1152 40 144 41 833 37 81 39 688 44 226 45 99
1397 0.027473033837235657 -0.051084954575385484 3.5319191374320607 167 166 164 0.28754818509532193 38 105 43 158 42 1145 40 133
1396 -1.0559968935130062 -0.018029199277210778 4.5935963488990437 176 154 106 0.41054854317417838 39 104 42 1132 41 1217
1395 0.41377791588303836 -0.086506261339863277 3.9901645029035406 113 112 107 0.87380247111486853 38 82 42 1131 41 820
1394 0.41351022337692583 -0.086086284620509226 3.9963808553667652 113 112 107 0.89590293622171624 39 82 42 1130 41 821
1393 0.16658291792480912 -0.10144918486049351 3.8697650067957654 99 98 94 0.55437347965524175 43 122 42 1125 40 115
1392 0.16612720615598262 -0.10093822731240082 3.8889969197751801 99 98 94 0.89687540677536215 43 121 42 1124 40 114 41 816
1391 -0.012185733539531543 -0.15802931460619488 3.8420504546734779 102 102 94 0.89518761768440969 43 1028 42 1115 40 839
1390 -0.59470217148543536 -0.16894144740854225 4.4371910470819431 113 115 121 0.71194318840541404 43 1022 42 1107 44 1003
1389 -0.76292005542249475 -0.1621216879538438 4.5383131302979907 79 77 70 0.876546279859171 38 138 42 1106 40 836 41 1203
1388 0.36911335768481074 -0.19720659009151467 4.0403658652183756 109 106 99 1.9589865545528251 39 68 42 1105
1387 0.40397631489085178 -0.30224065880907058 4.619206302095602 104 97 92 1.0192430818681202 38 44 42 1089 11 856 14 479 10 648 9 292
1386 -0.53414743069267367 -0.36320187127232917 4.6555054895754253 66 77 95 0.23890476029877625 42 1077 33 136
1385 -0.067967332429340901 -0.38177172119342823 4.0921647304093263 92 91 86 0.81985760409592534 39 27 42 1070 40 49 41 785
1384 0.83352429531602468 -0.54759142957686202 4.7238529378393741 196 168 119 0.41635764896205085 38 4 42 1066
1383 -0.049949569611442236 -0.60555119705611915 4.3093538355807146 26 52 96 1.1142113980908537 43 9 42 1054 41 767 22 143
1382 -0.1766935306172264 -0.71096059654518606 4.3054899732284166 92 108 141 1.3578247846604399 43 0 42 1048 40 0
1381 0.24356858280319962 1.5019487686760742 4.5603555659184085 140 116 70 1.0278982058099626 43 952 42 1039 40 790 41 760
1380 0.053064408087086505 1.4058159361824014 4.5378339639602689 88 90 89 0.4029265284999265 38 810 42 1020 41 751 37 748
1379 0.28189113368008301 1.3559594655396796 4.5575164375294026 129 125 124 0.6021318272003503 43 1443 42 1010 41 745
1378 0.50150743405047193 1.2367845824981614 4.5961483580947178 73 69 66 0.90605464678199166 39 583 42 974 40 773
1377 0.23783120567553423 1.247858621964518 4.5847727569734804 84 84 86 0.53520681692143524 38 758 42 973 41 732 37 674
1376 0.41439250461294475 1.2168246287090692 4.5960209967462262 81 81 81 0.47947636780709768 39 579 42 966 40 771
1375 0.28679940507839469 1.2216751284189922 4.6006563036367742 112 112 112 0.21220861632913124 38 740 42 962 37 663
1374 -0.65426927193445539 1.1028951376512 4.4271387529760791 145 126 93 1.5301861058674953 39 568 42 934 40 758 41 1129
1373 0.49354943141847663 1.0594617993802562 4.6062306545403455 43 37 29 0.22518173417167256 39 545 42 927 40 1174
1372 -0.44880041191458808 1.034695135761069 4.3212131554120505 101 105 116 0.35108261076163999 43 880 42 924 41 706
1371 0.6306266285541573 0.92531430129445547 4.5684407636410986 71 65 53 0.34680622263869881 39 523 42 890 40 1162
1370 -0.015243200080191638 0.73585755434741795 3.6552127343845409 71 73 72 0.38355978923302442 43 828 42 885 44 885 1 188
